3.770675390041178798e-01,4.315570598683012848e-01,4.572201479982034855e-01,4.279498454457961176e-01,4.514870107878328209e-01,4.982894256861616356e-01,5.257943709826263801e-01,5.590050017877519206e-01,6.016595258485916142e-01,6.518995664249798150e-01,7.045986483466445405e-01,7.503930443211217494e-01,7.990654519900348696e-01,8.518949876620223183e-01,8.941414990501229676e-01,9.313124073467686781e-01,9.535755627818479629e-01,9.572985206593632723e-01,9.375735816258415900e-01,8.848433421038822688e-01,8.180404698984418133e-01,7.172606441516407028e-01,6.024759374297750103e-01,4.721515682561249760e-01,3.216379784239679074e-01,1.791740257163228212e-01,1.013965069262508512e-01,1.186415145089151912e-01,2.284725734291183086e-01,2.732954532788606783e-01,2.914506862445671032e-01,2.465560644328352868e-01,2.084568288111296464e-01,1.761705139061936765e-01,1.734693599282754184e-01,1.652717575721463772e-01,1.250729083129427099e-01,1.133469114040521752e-01,1.229755537578969132e-01,1.110793700828660580e-01,9.001696077376662719e-02,4.848679992792558069e-02,3.937829973578242659e-02,5.153561997240934528e-02,4.324714290481135315e-02,3.563334547713759709e-02,3.236743039939372901e-02,4.041311735689707973e-02,5.492257690597030645e-02,3.689700070474365157e-02,2.641793664329255067e-02,3.298011202517030227e-02,3.708486301945403824e-02,4.002840874173905356e-02,4.719585793109845606e-02,5.462272641716931637e-02,6.251654963732090897e-02,5.132124217518217735e-02,3.233404510214103744e-02,2.045883508063503844e-02,1.683429063649231894e-02,2.613578893021851687e-02,1.858084177988617025e-02,6.534970767165679262e-03,1.371982326435258921e-02,1.758451535288406420e-02,1.690314165110259545e-02,1.463493924519306683e-02,1.209851072887518919e-02,1.130191066116075643e-02,1.142664897577758305e-02,1.265699334919194105e-02,1.990647978783364330e-02,2.667997176032483458e-02,2.149537966654368679e-02,1.705625174701489929e-02,1.340234609103190845e-02,2.125656171651387968e-02,2.828209588316731374e-02,2.041444073670848486e-02,1.737212808217530532e-02,1.879325723267354087e-02,2.830396670915846097e-02,3.553861434094301303e-02,2.922606171725534996e-02,2.851298526615249698e-02,3.234536594338334459e-02,3.881829652963031396e-02,4.155018666821152368e-02,3.148420205205484240e-02,2.801596431449188823e-02,2.923945769059579924e-02,3.332434383715125736e-02,3.379678745695392089e-02,2.404909864224601818e-02,2.759493566947739118e-02,3.939675190380809849e-02,3.781685565954710782e-02,3.573534948190303789e-02,3.374693768410426398e-02,4.062791428157746382e-02,5.229836061249756168e-02,4.611551747741703122e-02,4.393177537377757069e-02,4.982131208137552392e-02,5.398397727709282334e-02,5.696423939718907314e-02,4.582463763940647361e-02,4.023793476589886120e-02,4.410090192352674604e-02,4.220965188996339545e-02,3.776238319824853223e-02,2.921754691288193373e-02,2.618024643109267968e-02,3.131541843203115155e-02,2.515585415343350728e-02,1.619007835809294776e-02,1.746607564766268841e-02,1.928209412714375348e-02
3.777190620616034944e-01,4.312439564110946977e-01,4.563108025538087920e-01,4.271462738119100044e-01,4.496723774184923084e-01,4.949938500172130773e-01,5.220863703621605456e-01,5.548649889138574931e-01,5.970550803594842915e-01,6.472512160363824707e-01,7.000608548651969798e-01,7.458441950455383385e-01,7.947457333634775356e-01,8.481513356579468699e-01,8.912005698988132441e-01,9.292931352415033652e-01,9.528920262996771751e-01,9.580138941666874741e-01,9.397677621154612027e-01,8.885578496738352205e-01,8.232519683639673014e-01,7.237369125320634033e-01,6.100201452902895838e-01,4.805453147033170724e-01,3.303427303978213603e-01,1.864610716885775343e-01,9.896321331990350079e-02,1.120965079757900024e-01,2.232806696812492109e-01,2.699247805459015215e-01,2.898418133402444474e-01,2.461236219167428629e-01,2.079407230423645503e-01,1.744928334569955664e-01,1.715011799368665879e-01,1.631939644771949749e-01,1.231085321937204630e-01,1.117175475398588247e-01,1.218473986082073690e-01,1.109591125635004394e-01,9.074309785770366676e-02,4.946590739006150039e-02,3.983892506438124065e-02,5.097175668127862380e-02,4.343665218972461717e-02,3.610298753337477795e-02,3.173494750777226814e-02,3.977568347097859558e-02,5.490714857064715737e-02,3.740374875837680635e-02,2.692634254530432841e-02,3.241162260167981812e-02,3.652114161875885667e-02,3.999014186156615164e-02,4.655107242781095223e-02,5.378237022382315047e-02,6.222032903341680188e-02,5.160107287627646588e-02,3.313860571330382726e-02,2.042490796364017369e-02,1.651652277254524875e-02,2.640312725654108891e-02,1.910342095955814071e-02,7.137127847532906758e-03,1.373916020209752301e-02,1.753136602757660728e-02,1.747627091323079862e-02,1.469710932537811668e-02,1.146045743460832878e-02,1.123442748320958168e-02,1.148809335889910965e-02,1.231739422709457986e-02,1.930417056391895911e-02,2.594309230610766445e-02,2.118358211328633806e-02,1.670584739782339512e-02,1.252491618517791519e-02,2.051071480238109146e-02,2.781766006393986829e-02,2.030690218674933295e-02,1.711088753096044746e-02,1.790601035496825269e-02,2.752542663991791594e-02,3.500034433914190474e-02,2.898736873504789008e-02,2.815277960516939654e-02,3.152182184847775875e-02,3.829183595389437644e-02,4.138601382722124217e-02,3.160971165174476794e-02,2.785720748368580510e-02,2.838829300979062165e-02,3.286058248143554350e-02,3.358213625384567219e-02,2.349327607023652537e-02,2.679425502234644360e-02,3.841102880611367565e-02,3.730303140625500224e-02,3.540524840875382273e-02,3.288386828296384345e-02,3.974458942157850505e-02,5.167164524297170741e-02,4.587241113106968471e-02,4.384585796358454746e-02,4.944682369903674601e-02,5.393545636351221306e-02,5.751864179221823775e-02,4.661338462166121632e-02,4.106589027169483402e-02,4.463599230062913897e-02,4.312489188918471050e-02,3.925622308446782144e-02,3.015003478169146073e-02,2.683797681809347441e-02,3.212366064811505995e-02,2.637535941248773247e-02,1.772490685429355117e-02,1.747254259741349083e-02,1.875375865686307320e-02
3.783672448551270717e-01,4.309234758963147449e-01,4.553943800047872137e-01,4.263441893924251880e-01,4.478514718053931420e-01,4.916771034133907148e-01,5.183498295669279887e-01,5.506883571508498498e-01,5.924047629643736101e-01,6.425483996327479019e-01,6.954602978993656981e-01,7.412248807903882852e-01,7.903482918339316265e-01,8.443233435422271560e-01,8.881702037919426695e-01,9.271802394925162671e-01,9.521144983274887341e-01,9.586384525927880151e-01,9.418787863729118914e-01,8.922017116982716711e-01,8.284075356887866670e-01,7.301778634577273941e-01,6.175522526354980668e-01,4.889530661162168612e-01,3.390931734861927782e-01,1.938171507860835807e-01,9.657283993132337319e-02,1.055339469404776298e-01,2.179772559708828272e-01,2.664397414836107147e-01,2.881380261800579601e-01,2.456418148492147957e-01,2.074078484071150141e-01,1.728198986770731194e-01,1.695041664034057649e-01,1.610582688442904753e-01,1.210973114592836797e-01,1.100375480877953116e-01,1.206536802264462221e-01,1.107840385342321043e-01,9.143566689699179906e-02,5.045587889113316293e-02,4.030341756495076089e-02,5.037103072758872258e-02,4.360227161715483912e-02,3.655678157421322905e-02,3.107558689842408392e-02,3.910272177647293457e-02,5.484890211385783781e-02,3.789021843458388605e-02,2.742530007909777662e-02,3.181892585844157267e-02,3.593121305206988664e-02,3.992979669143396221e-02,4.587398164587527111e-02,5.290137216201795667e-02,6.187853268922326178e-02,5.184566299719665233e-02,3.392422608382258259e-02,2.037703670528120264e-02,1.618328160104299390e-02,2.664324019321284709e-02,1.964170738589664580e-02,7.808277422392621500e-03,1.376849138191503855e-02,1.745536859364348395e-02,1.802952318146934518e-02,1.476853885311113154e-02,1.086202408431918495e-02,1.118245848530223518e-02,1.157870097703141664e-02,1.206591317765594654e-02,1.874791324942096798e-02,2.519502535167932392e-02,2.086508163663546023e-02,1.635176254939440382e-02,1.164528807010557429e-02,1.975633609449655576e-02,2.734159090079938889e-02,2.020729887249761436e-02,1.686082214463779580e-02,1.701807456968695148e-02,2.673765161088286976e-02,3.444895597282865429e-02,2.874745296633350600e-02,2.779229812586736514e-02,3.069006120841313856e-02,3.774612978563696847e-02,4.119928078490317502e-02,3.173487301022828028e-02,2.770352073289719663e-02,2.753567458701078330e-02,3.238288051253358779e-02,3.335775767169013584e-02,2.297769615717036237e-02,2.601625646540490014e-02,3.738848716882390427e-02,3.675887341318858498e-02,3.505380819820771987e-02,3.200807806553262330e-02,3.882995795671444206e-02,5.098034726077905338e-02,4.558705779172036315e-02,4.372574667754041550e-02,4.901746591040662820e-02,5.381857202620816960e-02,5.799579653456831546e-02,4.736319031250674216e-02,4.187153670299886832e-02,4.512852174994284871e-02,4.399647660784578723e-02,4.071652716609667350e-02,3.111631411488493398e-02,2.754458676625310201e-02,3.291835433112698384e-02,2.759785752960463440e-02,1.930169791767128232e-02,1.751641544418820751e-02,1.824703693756789258e-02
3.790119060685468999e-01,4.305955645196421488e-01,4.544709444686036992e-01,4.255437559512348922e-01,4.460245569422549017e-01,4.883395397787004821e-01,5.145849511107190022e-01,5.464751783666588203e-01,5.877085492208136142e-01,6.377909443226184028e-01,6.907966422247066030e-01,7.365346949180351377e-01,7.858726072474560009e-01,8.404103168290104620e-01,8.850495020596167439e-01,9.249726018336870137e-01,9.512415888034591038e-01,9.591705654575869433e-01,9.439048231831056457e-01,8.957729368089317745e-01,8.335050487327770874e-01,7.365813580173359298e-01,6.250701847103958819e-01,4.973729005827515759e-01,3.478875156094840548e-01,2.012483194753805216e-01,9.427914672101422866e-02,9.900711961314972998e-02,2.125682087762366668e-01,2.628386349416033663e-01,2.863371502184647310e-01,2.451084518557866687e-01,2.068573980968600456e-01,1.711534861074077429e-01,1.674793147126324988e-01,1.588648538468551141e-01,1.190400255120656059e-01,1.083073173132633321e-01,1.193936992164519456e-01,1.105529479168126661e-01,9.209292169808190598e-02,5.145413419515185854e-02,4.076991998423147578e-02,4.973332911538239781e-02,4.374334426971822343e-02,3.699389316084521206e-02,3.038952781073604725e-02,3.839422725455857166e-02,5.474696372348498291e-02,3.835489288536578917e-02,2.791331152569468538e-02,3.120191117918263285e-02,3.531505875753758461e-02,3.984682081051258568e-02,4.516466393670339613e-02,5.197994222815544019e-02,6.149060381707787543e-02,5.205392955710939906e-02,3.468951948471625524e-02,2.031605022203972558e-02,1.583597812121440712e-02,2.685556157395571630e-02,2.018611781500529931e-02,8.529104429851103522e-03,1.380053809809600809e-02,1.735588438899992106e-02,1.856151104015997880e-02,1.485342591137743702e-02,1.031318804296263610e-02,1.114774843465865875e-02,1.169882263153299885e-02,1.190971339462129457e-02,1.824272904745059820e-02,2.443681753094262971e-02,2.053949560416751599e-02,1.599353268947075607e-02,1.076433460082978737e-02,1.899378714107975014e-02,2.685336308937180672e-02,2.011421847763280452e-02,1.662077616954710929e-02,1.612960849234088695e-02,2.594084899021408680e-02,3.388444069998047814e-02,2.850584279969555282e-02,2.743139479081052948e-02,2.985090375259143169e-02,3.718175453627985128e-02,4.098990670208266240e-02,3.185808163032297080e-02,2.755437580561498345e-02,2.668399922325507059e-02,3.189229475763741967e-02,3.312465193360488586e-02,2.250759971959542111e-02,2.526584074919125539e-02,3.633084284586848844e-02,3.618467584757974198e-02,3.468117220450590149e-02,3.112229010429478152e-02,3.788648588548114426e-02,5.022514372262221888e-02,4.525904822378486181e-02,4.357070401703111440e-02,4.853365084905682941e-02,5.363294083374207932e-02,5.839362361631709325e-02,4.807053114821419060e-02,4.265119928307935238e-02,4.557686353176810395e-02,4.482175063555801642e-02,4.213853497129416148e-02,3.211200519995650871e-02,2.829644230733398269e-02,3.369715284764362301e-02,2.881595671111838661e-02,2.090862998004036979e-02,1.760907212052580106e-02,1.777961768517595867e-02
3.796528606056017163e-01,4.302601690323377692e-01,4.535405629231979985e-01,4.247451385475779495e-01,4.441919052451632766e-01,4.849815344052608168e-01,5.107919544660233235e-01,5.422255381294257548e-01,5.829664270661631953e-01,6.329786871871085907e-01,6.860695600067470146e-01,7.317732391356538413e-01,7.813181677093508082e-01,8.364115677033006069e-01,8.818375700792149274e-01,9.226691048262576356e-01,9.502719028896993159e-01,9.596085913815501911e-01,9.458440236505067933e-01,8.992695084835936603e-01,8.385423515803321903e-01,7.429452171763534229e-01,6.325718203002408391e-01,5.058028445166918852e-01,3.567239475325897358e-01,2.087669040719840330e-01,9.218066776925792905e-02,9.261359276195231527e-02,2.070651877348009817e-01,2.591197705513803573e-01,2.844369943775036935e-01,2.445212968877765736e-01,2.062885427150367712e-01,1.694954147532141131e-01,1.654276738943329939e-01,1.566139713899628028e-01,1.169375750946060888e-01,1.065273642582538483e-01,1.180667925161554277e-01,1.102646484211024236e-01,9.271312280318844135e-02,5.245816662297174415e-02,4.123666147463009302e-02,4.905860270203488832e-02,4.385923876605808680e-02,3.741350442360161233e-02,2.967703027197496693e-02,3.765026689563820417e-02,5.460048110518144621e-02,3.879630345390445989e-02,2.838894285595683006e-02,3.056052070384550692e-02,3.467269200892208331e-02,3.974066879815874032e-02,4.442325811113091716e-02,5.101837655519579628e-02,6.105604743522777267e-02,5.222481901665762538e-02,3.543310863115130271e-02,2.024309844414712636e-02,1.547641697894669086e-02,2.703961717790515779e-02,2.072942275324259065e-02,9.285343422157706084e-03,1.382989704850273727e-02,1.723231430327540337e-02,1.907088329543358413e-02,1.495675277544484053e-02,9.825481906168293672e-03,1.113270710235667732e-02,1.184820734657491235e-02,1.185363764842893748e-02,1.779237326384521672e-02,2.366973154622083186e-02,2.020651047813542059e-02,1.563078214835961904e-02,9.883212836269842164e-03,1.822359616191593715e-02,2.635246080573148270e-02,2.002621338309937271e-02,1.638956383904694933e-02,1.524079233268088585e-02,2.513523172348812104e-02,3.330677422046495612e-02,2.826204996042715537e-02,2.706991329395007709e-02,2.900517126224590528e-02,3.659930736816123520e-02,4.075784924763451583e-02,3.197778473193364779e-02,2.740933607385174359e-02,2.583581424785462433e-02,3.138998625619857791e-02,3.288380947425587758e-02,2.208794487527326184e-02,2.454770384029904967e-02,3.523990270297235744e-02,3.558080809784164300e-02,3.428757415424773386e-02,3.022943219490172029e-02,3.691684578594994770e-02,4.940685937421113866e-02,4.488803988629916364e-02,4.338003395926723349e-02,4.799591659493850082e-02,5.337833510918654767e-02,5.871020144717911671e-02,4.873198330049478832e-02,4.340127384922318893e-02,4.597948270418101419e-02,4.559816573930261518e-02,4.351756814773031362e-02,3.313217129836691643e-02,2.908922901102331190e-02,3.445767091248329306e-02,3.002344426954458440e-02,2.253644389131509787e-02,1.776553861509398008e-02,1.737240294782355088e-02
3.802899195336065241e-01,4.299172367733840039e-01,4.526033052486109765e-01,4.239485034366755611e-01,4.423537988273187338e-01,4.816034848308965999e-01,5.069710767738114798e-01,5.379395362984333850e-01,5.781783973376045660e-01,6.281114757163301920e-01,6.812787311584221905e-01,7.269401239107180501e-01,7.766844700467289142e-01,8.323264155147727106e-01,8.785335177854933786e-01,9.202686323755084885e-01,9.492040414509059776e-01,9.599508784954884355e-01,9.476945215010988965e-01,9.026893852029984622e-01,8.435172555319581100e-01,7.492672215353650689e-01,6.400549911861388441e-01,5.142408717333063484e-01,3.656006350708053132e-01,2.163982940177612002e-01,9.046944204327114769e-02,8.654340343530261825e-02,2.014919009280483897e-01,2.552814710929046660e-01,2.824353522247751158e-01,2.438780700200842422e-01,2.057004291978587474e-01,1.678475418473810155e-01,1.633503462641906490e-01,1.543059470645064823e-01,1.147909942734639810e-01,1.046983132787903392e-01,1.166723361313938001e-01,1.099179571512029219e-01,9.329453751144212159e-02,5.346553843094995623e-02,4.170195560575283567e-02,4.834687161467439431e-02,4.394935141058355088e-02,3.781481672973424635e-02,2.893844886693873117e-02,3.687099146835690067e-02,5.440862576361153724e-02,3.921302322933856166e-02,2.885081422997396589e-02,2.989474853696931847e-02,3.400415956689444019e-02,3.961080328696080233e-02,4.364996856381959250e-02,5.001706445960979464e-02,6.057443546947675894e-02,5.235730984208997185e-02,3.615362935705047215e-02,2.015973900562767485e-02,1.510690201366954484e-02,2.719504861820576380e-02,2.126613800396033593e-02,1.006646765520467432e-02,1.385256163373599358e-02,1.708409850437381250e-02,1.955631871958824278e-02,1.508413806355679565e-02,9.411703012569980209e-03,1.114030113612800126e-02,1.202577316199959431e-02,1.189949387064742625e-02,1.739893290838350273e-02,2.289528053597919208e-02,1.986589588801287998e-02,1.526327400226488301e-02,9.003508892720064882e-03,1.744654028342651833e-02,2.583838325187771609e-02,1.994181388351964554e-02,1.616598449348717603e-02,1.435183958340602306e-02,2.432102379016017751e-02,3.271591685172990649e-02,2.801557088155648412e-02,2.670768838149645275e-02,2.815368799246972462e-02,3.599940450319033536e-02,4.050310383922396673e-02,3.209249073130437946e-02,2.726807015728129058e-02,2.499383094069589431e-02,3.087722630521699124e-02,3.263615935488334285e-02,2.172316529188909884e-02,2.386613948834657301e-02,3.411755713014794772e-02,3.494771737203031942e-02,3.387334543794792013e-02,2.933265316346463092e-02,3.592392906426674498e-02,4.852646777972306757e-02,4.447376132171506485e-02,4.315308753009460679e-02,4.740492967604831992e-02,5.305468772290949930e-02,5.894377632277241624e-02,4.934423239431629665e-02,4.411823519819199624e-02,4.633494033603659940e-02,4.632328196721359481e-02,4.484903587833791866e-02,3.417144134269269051e-02,2.991809807294941795e-02,3.519751474615746833e-02,3.121493785112516156e-02,2.417767624308740995e-02,1.800380656250463729e-02,1.704904366830530330e-02
3.809228900266982687e-01,4.295667157021090254e-01,4.516592442679683295e-01,4.231540179646823274e-01,4.405105297837803024e-01,4.782058117308830569e-01,5.031225735844295777e-01,5.336172876423393996e-01,5.733444743143676359e-01,6.231891682619177253e-01,6.764238437076277588e-01,7.220349688979800229e-01,7.719710202842833269e-01,8.281541872869607745e-01,8.751364601983444569e-01,9.177700702674016497e-01,9.480366015551620062e-01,9.601957648738390638e-01,9.494544334080867731e-01,9.060305006311526466e-01,8.484275391184907811e-01,7.555451111087019278e-01,6.475174816208708606e-01,5.226849025478148558e-01,3.745157126012556015e-01,2.241950650568290127e-01,8.953221010902776000e-02,8.117912978068267393e-02,1.958971119020651575e-01,2.513220751162098532e-01,2.803300032276817566e-01,2.431764483151379330e-01,2.050921795145251858e-01,1.662117578699018605e-01,1.612484868173423846e-01,1.519411856024977248e-01,1.126014640694547875e-01,1.028209160068409705e-01,1.152097480470494623e-01,1.095117022853988320e-01,9.383543974081767769e-02,5.447387512771364321e-02,4.216419774872681714e-02,4.759823135125813842e-02,4.401310878609569766e-02,3.819705451318539113e-02,2.817425092233442202e-02,3.605665076495066790e-02,5.417059542669112882e-02,3.960366187899010126e-02,2.929759222734424143e-02,2.920464053927451786e-02,3.330954346791299703e-02,3.945669606571054755e-02,4.284507114715845749e-02,4.897649649487181844e-02,6.004541232186325073e-02,5.245041540179384149e-02,3.684973579666104421e-02,2.006805048723969004e-02,1.473037383323640148e-02,2.732164407272111295e-02,2.179201467524103861e-02,1.086458975399622572e-02,1.386552081511549343e-02,1.691071686424829024e-02,2.001652189696888004e-02,1.524147503556233865e-02,9.085188849828250424e-03,1.117379131053318313e-02,1.222949055965171124e-02,1.204570595486649520e-02,1.706264309445779462e-02,2.211526893113268180e-02,1.951752089783649613e-02,1.489099735879152384e-02,8.127496953691039014e-03,1.666379126770146935e-02,2.531065032758038347e-02,1.985954015896741753e-02,1.594883756114416282e-02,1.346301196630151666e-02,2.349846763705863012e-02,3.211181419915393187e-02,2.776588796998567463e-02,2.634454719803030337e-02,2.729728167957721358e-02,3.538267981230304449e-02,4.022570229710742407e-02,3.220077657071929861e-02,2.713036413505264671e-02,2.416093892834365528e-02,3.035540286367781684e-02,3.238251260121296354e-02,2.141690567958244584e-02,2.322482339360166029e-02,3.296577219712985146e-02,3.428593132047211278e-02,3.343892252451690500e-02,2.843534038248432191e-02,3.491085898900704587e-02,4.758509199974974430e-02,4.401601643793105756e-02,4.288926840959515763e-02,4.676148731966250915e-02,5.266209663687433651e-02,5.909277177320219898e-02,4.990408300134949182e-02,4.479864516168608618e-02,4.664189750487181957e-02,4.699477010899831553e-02,4.612844325315824945e-02,3.522412786068183921e-02,3.077780539054009168e-02,3.591431112773366824e-02,3.238565425178585588e-02,2.582607274340332701e-02,1.834344855523866585e-02,1.683458976659950312e-02
3.815515753086509698e-01,4.292085544312618239e-01,4.507084557877413244e-01,4.223618504578197652e-01,4.386624004866430671e-01,4.747889598451089377e-01,4.992467196311791700e-01,5.292589224863476494e-01,5.684646862834720205e-01,6.182116345064462282e-01,6.715045941751186520e-01,7.170574033781834666e-01,7.671773341335256235e-01,8.238942182421572502e-01,8.716455179686387611e-01,9.151723067257069300e-01,9.467681769975440087e-01,9.603415789921998513e-01,9.511218593421854051e-01,9.092907638199669851e-01,8.532709481389854078e-01,7.617765851244067132e-01,6.549570278256039435e-01,5.311328028963605563e-01,3.834672775919717447e-01,2.322547517490982094e-01,9.007772755781304208e-02,7.722178633716472729e-02,1.903710028827790834e-01,2.472399398691593198e-01,2.781187140878378372e-01,2.424140667554688378e-01,2.044628891277982807e-01,1.645899807655927805e-01,1.591233023621148601e-01,1.495201769112160795e-01,1.103703280176587948e-01,1.008960649810227844e-01,1.136784913370782052e-01,1.090447248324174223e-01,9.433410983359044599e-02,5.548085921851428348e-02,4.262186229538621196e-02,4.681285972934277201e-02,4.404997084309348471e-02,3.855947066364381198e-02,2.738504091817115307e-02,3.520761375633431334e-02,5.388561664228947584e-02,3.996686156755535624e-02,2.972798356221642568e-02,2.849029469350276844e-02,3.258896299228958987e-02,3.927782923497568496e-02,4.200891997874128814e-02,4.789727375455214708e-02,5.946870098804474258e-02,5.250318719905093523e-02,3.752010730994918136e-02,1.997077846415158675e-02,1.435058700383880746e-02,2.741937744745191405e-02,2.230366505247610362e-02,1.167365439679001610e-02,1.386646500578914663e-02,1.671168995007329267e-02,2.045022067651698638e-02,1.543430582428254212e-02,8.858557786750263438e-03,1.123628049723227051e-02,1.245641313998664679e-02,1.228743770146780746e-02,1.678198640195754238e-02,2.133184104523620089e-02,1.916137289113716349e-02,1.451433126563043789e-02,7.258632250240802143e-03,1.587719120437543208e-02,2.476880844924041550e-02,1.977791289281542048e-02,1.573693788983147532e-02,1.257463939878060606e-02,2.266783453341421339e-02,3.149439815056532394e-02,2.751247077343089639e-02,2.598031070071616863e-02,2.643678526335396101e-02,3.474978365753048776e-02,3.992571095600671444e-02,3.230129306767924591e-02,2.699613233687584574e-02,2.334022114031194389e-02,2.982602711725192840e-02,3.212350643030618957e-02,2.117176239894594941e-02,2.262660180961185291e-02,3.178658251585207012e-02,3.359606076228488503e-02,3.298485434717450537e-02,2.754113790891850322e-02,3.388100405249920566e-02,4.658400479027182545e-02,4.351468865146031206e-02,4.258803854111481435e-02,4.606651944656297432e-02,5.220082918115626774e-02,5.915579774812075586e-02,5.040846801896055329e-02,4.543916056623257399e-02,4.689911909269690177e-02,4.761041520134402794e-02,4.735140159417036698e-02,3.628433370248232426e-02,3.166283627267143380e-02,3.660573372177503698e-02,3.353125567138860730e-02,2.747608185255194166e-02,1.880331073878632742e-02,1.675304191235529525e-02
3.821757745952625296e-01,4.288427022605130201e-01,4.497510186372173369e-01,4.215721701055600845e-01,4.368097238910837454e-01,4.713533989419331216e-01,4.953438096382092315e-01,5.248645873900485981e-01,5.635390761304065466e-01,6.131787559505961216e-01,6.665206879629983483e-01,7.120070667087413652e-01,7.623029374957518423e-01,8.195458523423707620e-01,8.680598179426001204e-01,9.124742329901778248e-01,9.453973588472250889e-01,9.603866402099187072e-01,9.526948829474001235e-01,9.124680594392331479e-01,8.580451957233730109e-01,7.679593018466537302e-01,6.623713175082319715e-01,5.395823834794277740e-01,3.924533859313903972e-01,2.406894607696526689e-01,9.291924862327911872e-02,7.547574210102074577e-02,1.850172308022603185e-01,2.430334445975879665e-01,2.757992401599373977e-01,2.415885192477715271e-01,2.038116251969384618e-01,1.629841493045950940e-01,1.569760503854299993e-01,1.470435027781332449e-01,1.080991099932588489e-01,9.892480923580684871e-02,1.120780774989221101e-01,1.085158804667157584e-01,9.478883438194039834e-02,5.648422373983759404e-02,4.307350008122286245e-02,4.599102487414372109e-02,4.405943455602703840e-02,3.890135407878492213e-02,2.657159384271525968e-02,3.432439580339149976e-02,5.355294759077980360e-02,4.030129380318520083e-02,3.014073008369138468e-02,2.775186206868140298e-02,3.184257687008869298e-02,3.907369641857993958e-02,4.114195542085206242e-02,4.678011873914939001e-02,5.884410982629238035e-02,5.251471845160336771e-02,3.816345732651760941e-02,1.987151901837352214e-02,1.397233251092505103e-02,2.748845715789937499e-02,2.279830229474720180e-02,1.248887562725209920e-02,1.385358165553526519e-02,1.648658049521107422e-02,2.085616487663997237e-02,1.566697382290431484e-02,8.742000805434354399e-03,1.133010317206398221e-02,1.270284338712847523e-02,1.261714902031474232e-02,1.655405175054531011e-02,2.054753873391288246e-02,1.879757952837633056e-02,1.413437741283431540e-02,6.402559432086374867e-03,1.508981426539634726e-02,2.421243656323541701e-02,1.969546252755717194e-02,1.552913243317714104e-02,1.168714798449805789e-02,2.182943943330993564e-02,3.086358822613980216e-02,2.725477706000801331e-02,2.561479519944811697e-02,2.557303948105838984e-02,3.410138207386364390e-02,3.960322828713005311e-02,3.239276847168646306e-02,2.686542659691048759e-02,2.253496859105384720e-02,2.929073985719050227e-02,3.185955699720826456e-02,2.098906482203801230e-02,2.207331378347974354e-02,3.058208618765963227e-02,3.287880262890782723e-02,3.251180939879769888e-02,2.665396418084578153e-02,3.283799083245916850e-02,4.552462829363793095e-02,4.296974485942556266e-02,4.224892371482152909e-02,4.532109040618526041e-02,5.167132604690015396e-02,5.913165959387447351e-02,5.085445801192754051e-02,4.603654119108801374e-02,4.710547738476520557e-02,4.816812083269978589e-02,4.851364003795931995e-02,3.734604413934901335e-02,3.256751191203198503e-02,3.726952577760176549e-02,3.464774699035126637e-02,2.912239088399676962e-02,1.939847145268680864e-02,1.682403842662477667e-02
3.827952830363400838e-01,4.284691092103479759e-01,4.487870147070924243e-01,4.207851468377309945e-01,4.349528238527251567e-01,4.678996248200293917e-01,4.914141591644567431e-01,5.204344458578090693e-01,5.585677019562788059e-01,6.080904264189834763e-01,6.614718397540355621e-01,7.068836087866157136e-01,7.573473669790090623e-01,8.151084428466887077e-01,8.643784937451552963e-01,9.096747439163233029e-01,9.439227360187673055e-01,9.603292592785533932e-01,9.541715719432131149e-01,9.155602480329589898e-01,8.627479624210000475e-01,7.740908784217790384e-01,6.697579894041794102e-01,5.480313989278307041e-01,4.014720478929044711e-01,2.495058464083823591e-01,9.811519537778554123e-02,7.599899516858614479e-02,1.798425162725442450e-01,2.387009943045838578e-01,2.733693269598354014e-01,2.406973597017431632e-01,2.031374245066050743e-01,1.613962155339941362e-01,1.548080376467937391e-01,1.445118443553671805e-01,1.057895347011372361e-01,9.690837219228989885e-02,1.104080700424799749e-01,1.079240414457688091e-01,9.519790612933111407e-02,5.748174584506074436e-02,4.351773631200101661e-02,4.513309447597229490e-02,4.404103823696167708e-02,3.922204030928645030e-02,2.573490163975304668e-02,3.340769620059558936e-02,5.317188117879594750e-02,4.060565707691176501e-02,3.053460490621388163e-02,2.698954844946827719e-02,3.107058580849457463e-02,3.884380403515968333e-02,4.024471354283547242e-02,4.562588819537066742e-02,5.817154010865310809e-02,5.248414803555084829e-02,3.877854401207009305e-02,1.977493801996860895e-02,1.360170344633592800e-02,2.752938409497068459e-02,2.327356279714328305e-02,1.330635179865142376e-02,1.382541601804026382e-02,1.623499530353159775e-02,2.123312598722492880e-02,1.594174346390413513e-02,8.741506280199783097e-03,1.145619167736982268e-02,1.296458151435637626e-02,1.302541667912268143e-02,1.637505459272080993e-02,1.976536941534302871e-02,1.842643421826601832e-02,1.375369622228777775e-02,5.569352611466731051e-03,1.430721179977610322e-02,2.364115242954600848e-02,1.961073723456250445e-02,1.532432014481003787e-02,1.080110130239636361e-02,2.098366311115773541e-02,3.021929331689321083e-02,2.699225382831157635e-02,2.524781409808171673e-02,2.470689652463155597e-02,3.343815639717835630e-02,3.925838208712923577e-02,3.247401042277108657e-02,2.673844369135584126e-02,2.174869380114458767e-02,2.875131712036115700e-02,3.159082842069223934e-02,2.086873367898395282e-02,2.156567676220910029e-02,2.935444333670888389e-02,3.213494328402734246e-02,3.202058211358466827e-02,2.577802751499154443e-02,3.178571499208809881e-02,4.440853319005719918e-02,4.238123920799111849e-02,4.187151909772630909e-02,4.452640045625187032e-02,5.107420498433888623e-02,5.901936677808684861e-02,5.123927056678914682e-02,4.658765780370886789e-02,4.725995547005176767e-02,4.866591405099997270e-02,4.961101792161458357e-02,3.840320334272924463e-02,3.348607659511058932e-02,3.790351888743605235e-02,3.573140694022231001e-02,3.075953583795376645e-02,2.013725712792078723e-02,1.705957703595784719e-02
3.834098916572941662e-01,4.280877260563159536e-01,4.478165289871072208e-01,4.200009511954213570e-01,4.330920354567735497e-01,4.644281603495186705e-01,4.874581054854554285e-01,5.159686790837262338e-01,5.535506377231016462e-01,6.029465525856492203e-01,6.563577739220594065e-01,7.016866905236404106e-01,7.523101704293311265e-01,8.105813528854030059e-01,8.606006863827168063e-01,9.067727385973395338e-01,9.423428958683117695e-01,9.601677388770386568e-01,9.555499785541023972e-01,9.185651663031133562e-01,8.673768963162219459e-01,7.801688907491353131e-01,6.771146328406062453e-01,5.564775469915728134e-01,4.105212246075500282e-01,2.585987956479096628e-01,1.049239813182067799e-01,7.805850510486941896e-02,1.747508455177353426e-01,2.342410240838391222e-01,2.708267117671302460e-01,2.397381031874567525e-01,2.024392911076349499e-01,1.598281362746742928e-01,1.526206185049076569e-01,1.419259905522521625e-01,1.034435512993375911e-01,9.484817225580247091e-02,1.086680883693023902e-01,1.072680986126549885e-01,9.555962398688240544e-02,5.847124062232271491e-02,4.395326924783971023e-02,4.423954659803101125e-02,4.399436662219932681e-02,3.952092675177057424e-02,2.487623921401672933e-02,3.245845115600406311e-02,5.274174851498648897e-02,4.087867518461926752e-02,3.090840955744573321e-02,2.620361675491251346e-02,3.027323546155788470e-02,3.858767263513547541e-02,3.931783747442725574e-02,4.443558846322771816e-02,5.745099452114416777e-02,5.241066481850725767e-02,3.936418195682067633e-02,1.968700816892716282e-02,1.324638211790105449e-02,2.754301418796685844e-02,2.372738540529115148e-02,1.412280264678854140e-02,1.378077681199380358e-02,1.595658757670498362e-02,2.157989768535518299e-02,1.625818986533900112e-02,8.857628147974404634e-03,1.161363488507096212e-02,1.323719171600869736e-02,1.350180865955577514e-02,1.624089461501532217e-02,1.898888543078019672e-02,1.804842543914313840e-02,1.337808895013679888e-02,4.778949217234632410e-03,1.354042899086048413e-02,2.305461928256443901e-02,1.952230973958109586e-02,1.512147847495229694e-02,9.917264617801532442e-03,2.013098660079180868e-02,2.956141384752321299e-02,2.672433827165527492e-02,2.487917993233480785e-02,2.383922499679995768e-02,3.276080346843242286e-02,3.889132629385130824e-02,3.254390650235208793e-02,2.661553045113430882e-02,2.098514105967233534e-02,2.820967425769659379e-02,3.131722392424415163e-02,2.080924364234327736e-02,2.110325801907490112e-02,2.810587960485213394e-02,3.136536244429967424e-02,3.151209788701659492e-02,2.491783667943414660e-02,3.072834831052979193e-02,4.323743727451172941e-02,4.174931662488735179e-02,4.145549468332414278e-02,4.368378699749148053e-02,5.041026420001333552e-02,5.881814131715665250e-02,5.156027968639460141e-02,4.708950032436214073e-02,4.736165043718582046e-02,4.910195071474045270e-02,5.063953769096748297e-02,3.944977597309242551e-02,3.441276662968283107e-02,3.850564790644776803e-02,3.677874205390211509e-02,3.238165771487616640e-02,2.101945790609882278e-02,1.746205915901007100e-02
3.840193873003625025e-01,4.276985043635986861e-01,4.468396496026371678e-01,4.192197541955630102e-01,4.312277053593763787e-01,4.609395565536742456e-01,4.834760085149213404e-01,5.114674867333055541e-01,5.484879739290200451e-01,5.977470545202812069e-01,6.511782249536895995e-01,6.964159843345337775e-01,7.471909074765161751e-01,8.059639560512540379e-01,8.567255448658658290e-01,9.037671210087957485e-01,9.406564248153970187e-01,9.599003741744157603e-01,9.568281399673737031e-01,9.214806274218650950e-01,8.719296131722358290e-01,7.861908733780142988e-01,6.844387873250308285e-01,5.649184677520511233e-01,4.195988249466963693e-01,2.678702601598105248e-01,1.126548819213510910e-01,8.097156077069227187e-02,1.696528080645581527e-01,2.296520041811334900e-01,2.681691253281696108e-01,2.387082271755697760e-01,2.017161936587231752e-01,1.582818636254728073e-01,1.504151929900417184e-01,1.392868474878525276e-01,1.010633607096673436e-01,9.274584659722875934e-02,1.068578119841006452e-01,1.065469634876493876e-01,9.587229319142639983e-02,5.945055526498251725e-02,4.437886987378469872e-02,4.331098238204972306e-02,4.391905687888884857e-02,3.979749471312780257e-02,2.399726029429888330e-02,3.147791033616754303e-02,5.226192292700639758e-02,4.111909614005507946e-02,3.126097207557410051e-02,2.539439045341738976e-02,2.945082001984850734e-02,3.830483831004780765e-02,3.836209118947151581e-02,4.321039403719843797e-02,5.668258682787151448e-02,5.229351241513753579e-02,3.991925260565106631e-02,1.961521167261143228e-02,1.291588545427077052e-02,2.753061228895811383e-02,2.415792898343370465e-02,1.493538872004583108e-02,1.371867226966744582e-02,1.565105969279454237e-02,2.189529703502932426e-02,1.661311630585395396e-02,9.085317958396453217e-03,1.179961308603706682e-02,1.351623319916372967e-02,1.403564329487358084e-02,1.614765153639583298e-02,1.822227491552375761e-02,1.766426997295936913e-02,1.302119428971837238e-02,4.075177426297801886e-03,1.281378777400281506e-02,2.245255301217700256e-02,1.942878319489078215e-02,1.491970289663281310e-02,9.036710403476042389e-03,1.927204753731916187e-02,2.888984440272004961e-02,2.645045872579889629e-02,2.450870682455802418e-02,2.297091645886936706e-02,3.207003657470416241e-02,3.850223749069870555e-02,3.260142355709776812e-02,2.649718574109154526e-02,2.024829094204168289e-02,2.766786723809287057e-02,3.103840119549761134e-02,2.080769997392638293e-02,2.068454020814625496e-02,2.683869566227864781e-02,3.057103801790902325e-02,3.098741578815933026e-02,2.407820253413696376e-02,2.967033864742589511e-02,4.201320341906304712e-02,4.107421608387624989e-02,4.100060063575557134e-02,4.279472558286511602e-02,4.968048545429810947e-02,5.852742586276285519e-02,5.181502523425129264e-02,4.753918614877669646e-02,4.740977635583915745e-02,4.947452115562354924e-02,5.159535816581126838e-02,4.047979563495289479e-02,3.534186316218693169e-02,3.907396238852577780e-02,3.778645612214470706e-02,3.398245419197017808e-02,2.203650555569205971e-02,1.802451601575746909e-02
3.846235525654798093e-01,4.273013965218537824e-01,4.458564678501480971e-01,4.184417271890831236e-01,4.293601921416584366e-01,4.574343937324834020e-01,4.794682517681388978e-01,5.069310877642068114e-01,5.433798183154401329e-01,5.924918662563333216e-01,6.459329378816619505e-01,6.910711746378377374e-01,7.419891500947110030e-01,8.012556370081471702e-01,8.527522268523957116e-01,9.006568006766479950e-01,9.388619089911474092e-01,9.595254534210032604e-01,9.580040788202804913e-01,9.243044213734292747e-01,8.764036966043953214e-01,7.921543194319349279e-01,6.917279421594676458e-01,5.733517428582255437e-01,4.287027027383564226e-01,2.772647968711310362e-01,1.209225345529096746e-01,8.435744122443281090e-02,1.644983074244259214e-01,2.249324459930726050e-01,2.653942936661639607e-01,2.376051728652581740e-01,2.009670624619967205e-01,1.567593344470817052e-01,1.481932046467288877e-01,1.365954491821901318e-01,9.865144726286645405e-02,9.060327867583989336e-02,1.049769850880366423e-01,1.057595704530630981e-01,9.613422562258727710e-02,6.041756366966515024e-02,4.479338278119959771e-02,4.234814108554999651e-02,4.381480571847434780e-02,4.005134213887589362e-02,2.310013994548679866e-02,3.046775022615250822e-02,5.173182477770683907e-02,4.132569160364760186e-02,3.159114603847111569e-02,2.456225830379655736e-02,2.860368668522701718e-02,3.799485418341137094e-02,3.737837643815415667e-02,4.195167027983395802e-02,5.586655297800079134e-02,5.213199440753166908e-02,4.044270859167943544e-02,1.956859752557841767e-02,1.262163422807255353e-02,2.749386910136537854e-02,2.456351579138988175e-02,1.574158620071024542e-02,1.363826678909742934e-02,1.531816651298023232e-02,2.217816628392647177e-02,1.700103496879025802e-02,9.414892426076312479e-03,1.200973443547498354e-02,1.379742918080545042e-02,1.461654720925400358e-02,1.609196754386330724e-02,1.747046268897797447e-02,1.727494955122305109e-02,1.271505479956489687e-02,3.558011414595126272e-03,1.218277911273373676e-02,2.183473005288795107e-02,1.932879632457586844e-02,1.471827230613911852e-02,8.161002269337117379e-03,1.840773775705914841e-02,2.820447686071582416e-02,2.617003563503030039e-02,2.413621350581170513e-02,2.210289393725447388e-02,3.136658732647858161e-02,3.809131116274866447e-02,3.264560596279383192e-02,2.638405813315311543e-02,1.954235554462476626e-02,2.712808955918627474e-02,3.075380958135554704e-02,2.086001811548541390e-02,2.030707237555628986e-02,2.555528345489593844e-02,2.975305231188958913e-02,3.044772765023328817e-02,2.326422514864097055e-02,2.861639852455760691e-02,4.073783687432920575e-02,4.035627356932121323e-02,4.050667250573543321e-02,4.186083073179571595e-02,4.888603686915633101e-02,5.814689140469251477e-02,5.200122242404926071e-02,4.793396863954083043e-02,4.740366703091135336e-02,4.978205604216838498e-02,5.247480806668673031e-02,4.148740242114337673e-02,3.626773159257436208e-02,3.960663500854789271e-02,3.875143033618699134e-02,3.555530009838363259e-02,2.317341120137499794e-02,1.873279380301331662e-02
3.852221657508184682e-01,4.268963557802878395e-01,4.448670782314194661e-01,4.176670417125112333e-01,4.274898666768736089e-01,4.539132826293155176e-01,4.754352433692575763e-01,5.023597212885633212e-01,5.382262966081950983e-01,5.871809363823012884e-01,6.406216687300163581e-01,6.856519583700372289e-01,7.367044831780805714e-01,7.964557921177120026e-01,8.486798993111962508e-01,8.974406933691814192e-01,9.369579349135815916e-01,9.590412585689003233e-01,9.590758037174395012e-01,9.270343153266528136e-01,8.807966982842652115e-01,7.980566805616446935e-01,6.989795360812791625e-01,5.817748947875256427e-01,4.378306542573062732e-01,2.867537170444313666e-01,1.295334720735381029e-01,8.802522225237859044e-02,1.592619933463451931e-01,2.200809092907229370e-01,2.624999400059880306e-01,2.364263466054547513e-01,2.001907861904099750e-01,1.552624588111445048e-01,1.459561381854275197e-01,1.338529696957545811e-01,9.621061542953485146e-02,8.842263015040312257e-02,1.030254216115878835e-01,1.049048790362439310e-01,9.634374028939439449e-02,6.137016150377806734e-02,4.519572849921222463e-02,4.135191799619595404e-02,4.368137785451743638e-02,4.028223334373621373e-02,2.218779177283518311e-02,2.943024643234380677e-02,5.115092750922953929e-02,4.149725676561577536e-02,3.189781057079905946e-02,2.370768094317548397e-02,2.773224143478878606e-02,3.765729199530236382e-02,3.636775379065219221e-02,4.066100154368430808e-02,5.500326402054496466e-02,5.192548008374642254e-02,4.093356384483043398e-02,1.955750662806321830e-02,1.237661989603452278e-02,2.743483359009577308e-02,2.494259233476357751e-02,1.653909920658235694e-02,1.353885177429943118e-02,1.495771936198468828e-02,2.242737520778045890e-02,1.741499758776341583e-02,9.833706236697084893e-03,1.223862110559426411e-02,1.407677067806911535e-02,1.523480189483710640e-02,1.607130798233243757e-02,1.673921663128623630e-02,1.688174938106162121e-02,1.251516552539447616e-02,3.398978845327650308e-03,1.174261235861182896e-02,2.120099622682718177e-02,1.922102809600172851e-02,1.451676774495066005e-02,7.292537090190950172e-03,1.753938377142667815e-02,2.750520408436236269e-02,2.588248257707666256e-02,2.376152709360344548e-02,2.123612285298973057e-02,3.065120872070577901e-02,3.765875776882693371e-02,3.267557297989864828e-02,2.627693769956801137e-02,1.887175984757357219e-02,2.659266265645988947e-02,3.046274293536139002e-02,2.096117735771178131e-02,1.996768344092293007e-02,2.425814981877405171e-02,2.891260025565703384e-02,2.989435181647890488e-02,2.248125904619052012e-02,2.757147665050683344e-02,3.941348185710982083e-02,3.959592470949639675e-02,3.997363629862284162e-02,4.088385659384451143e-02,4.802827546722435864e-02,5.767644454927794290e-02,5.211677133882128277e-02,4.827124578259287674e-02,4.734277851513922497e-02,5.002313234996075275e-02,5.327439974506251175e-02,4.246687184112443725e-02,3.718485036657644821e-02,4.010196746467174778e-02,3.967071087442088084e-02,3.709344904656351055e-02,2.441148909007420653e-02,1.956861071142262237e-02
3.858150007930190584e-01,4.264833362829073549e-01,4.438715784864368796e-01,4.168958693329432030e-01,4.256171125111110065e-01,4.503768656419192551e-01,4.713774171047303008e-01,4.977536474795866694e-01,5.330275532950696782e-01,5.818142286575305189e-01,6.352441849714262068e-01,6.801580455131086556e-01,7.313365051318374555e-01,7.915638300840779351e-01,8.445077392074726852e-01,8.941177218135069049e-01,9.349430901908297731e-01,9.584460659227460599e-01,9.600413097795886808e-01,9.296680540395261261e-01,8.851061381757353574e-01,8.038953669282198344e-01,7.061909569319919644e-01,5.901853861323981265e-01,4.469804159419342171e-01,2.963212944780908020e-01,1.383873970784763041e-01,9.187615968674940625e-02,1.539305910206573702e-01,2.150960110694420391e-01,2.594837868223572874e-01,2.351691214157460019e-01,1.993862083108192407e-01,1.537931074157671552e-01,1.437055169989570613e-01,1.310607369613173145e-01,9.374403249764820534e-02,8.620637791891035129e-02,1.010030107538714278e-01,1.039818762965299126e-01,9.649916399207565665e-02,6.230626176079549772e-02,4.558490755044630055e-02,4.032338591296609487e-02,4.351861610725152318e-02,4.049017659170833783e-02,2.126420779770054822e-02,2.836854278436678339e-02,5.051876564570406680e-02,4.163261063344743385e-02,3.217987146418509886e-02,2.283120014855812355e-02,2.683695670327974556e-02,3.729174379711992088e-02,3.533146909239457539e-02,3.934022639436456081e-02,5.409324130838659428e-02,5.167341076073946049e-02,4.139085960546960707e-02,1.959273787504882403e-02,1.219439428017323780e-02,2.735570309765137861e-02,2.529370217187099090e-02,1.732579773029185866e-02,1.341982655622701685e-02,1.456959093421439540e-02,2.264182399116583880e-02,1.784746693968917997e-02,1.032790683684979560e-02,1.248052514200559057e-02,1.435056608005031570e-02,1.588151417756170081e-02,1.608411598244719604e-02,1.603524990101955899e-02,1.648629528568409941e-02,1.244388359935610922e-02,3.668363798249100506e-03,1.153238992637202823e-02,2.055127686492493749e-02,1.910420219353322832e-02,1.431530784261794871e-02,6.435230288143395545e-03,1.666910656677733638e-02,2.679192422926968131e-02,2.558720739318520038e-02,2.338448786187700967e-02,2.037162496621069616e-02,2.992467970423028437e-02,3.720479869472539947e-02,3.269051533704346590e-02,2.617673997479888492e-02,1.824110363153207126e-02,2.606401725206988762e-02,3.016439994691879831e-02,2.110551043709821620e-02,1.966272784009853031e-02,2.294994848369298970e-02,2.805100058111432287e-02,2.932871944459907593e-02,2.173484761142231367e-02,2.654070547126792523e-02,3.804241736534575563e-02,3.879370704788850932e-02,3.940151337912836671e-02,3.986569752398616551e-02,4.710874947759926407e-02,5.711623433562998398e-02,5.215976645609581713e-02,4.854856899393658609e-02,4.722669136485430075e-02,5.019647935690889351e-02,5.399084307458194842e-02,4.341263725766660031e-02,3.808783171445256910e-02,4.055839431931136663e-02,4.054150171720513618e-02,3.859022726021968386e-02,2.573085191284347345e-02,2.051235212626531523e-02
3.864018272071337301e-01,4.260622931038928751e-01,4.428700696248513147e-01,4.161283814862650754e-01,4.237423262579604888e-01,4.468258180789017597e-01,4.672952335252267275e-01,4.931131485253806845e-01,5.277837524422169801e-01,5.763917226540464789e-01,6.298002659969473838e-01,6.745891596357466158e-01,7.258848284788961269e-01,7.865791726172184362e-01,8.402349342097701346e-01,8.906868164372143681e-01,9.328159642530295947e-01,9.577381468216591420e-01,9.608985792247302093e-01,9.322033602968065047e-01,8.893295048045285478e-01,8.096677472177113977e-01,7.133595413554344455e-01,5.985806189135374211e-01,4.561496623006072726e-01,3.059579980825296031e-01,1.474287484713440177e-01,9.585580436298496432e-02,1.484966963855858801e-01,2.099764365933622645e-01,2.563435580213850873e-01,2.338308386141797479e-01,1.985521232135597225e-01,1.523530979872474711e-01,1.414429006201790018e-01,1.282202485893886579e-01,9.125527816528453129e-02,8.395735711852560235e-02,9.890972310477604001e-02,1.029895793230872769e-01,9.659883216130979444e-02,6.322379080530173001e-02,4.596000656203199503e-02,3.926382107012853923e-02,4.332645354036902818e-02,4.067554850133588834e-02,2.033500492568619811e-02,2.728708344904589439e-02,4.983494602898257131e-02,4.173059668371127684e-02,3.243626368147992794e-02,2.193345210597274358e-02,2.591838198879462679e-02,3.689782377887471793e-02,3.427098709839741797e-02,3.799148223216959608e-02,5.313717463159130239e-02,5.137530677339254004e-02,4.181360135841635794e-02,1.968404066649401610e-02,1.208724335145203513e-02,2.725844199352222066e-02,2.561546701092247760e-02,1.809967336274764110e-02,1.328068689378742763e-02,1.415372155305107474e-02,2.282044668019076253e-02,1.829100277990533194e-02,1.088381461595665060e-02,1.272981283131061937e-02,1.461545232046799342e-02,1.654866133818941668e-02,1.612988167461450531e-02,1.536630142978577529e-02,1.609058350817510474e-02,1.245111085498547786e-02,4.215149884532474675e-03,1.146853189092036929e-02,1.988558863930623907e-02,1.897709159613811605e-02,1.411506099174161637e-02,5.596011843208888691e-03,1.580060453767597947e-02,2.606454574167687416e-02,2.528361347620509958e-02,2.300495530197607663e-02,1.951049609593227124e-02,2.918781163708602383e-02,3.672966215381898158e-02,3.268969116427428850e-02,2.608447989156091606e-02,1.765509775081656324e-02,2.554466280138651887e-02,2.985794393192519464e-02,2.128699159544349476e-02,1.938833397040616580e-02,2.163352253458175264e-02,2.716971134357206580e-02,2.875235108019760788e-02,2.103061685662462391e-02,2.552931718047909623e-02,3.662705215994453700e-02,3.795026192253386083e-02,3.879042520255836235e-02,3.880838865417857164e-02,4.612920046194963347e-02,5.646665855592344213e-02,5.212850614985201775e-02,4.876365205319253826e-02,4.705511262342732676e-02,5.030098459192214322e-02,5.462105946412788154e-02,4.431930766288533219e-02,3.897143655156048991e-02,4.097448517366179821e-02,4.136116114983883624e-02,4.003917198570770136e-02,2.711214300032326746e-02,2.154500669531232704e-02
3.869824100263125621e-01,4.256331822830367040e-01,4.418626559558929134e-01,4.153647493085479980e-01,4.218659180075313153e-01,4.432608494627873208e-01,4.631891810984781199e-01,4.884385296331221760e-01,5.224950785522405328e-01,5.709134144260411547e-01,6.242897035984855680e-01,6.689450384485264856e-01,7.203490804824326244e-01,7.815012551152555886e-01,8.358606834193169632e-01,8.871469161358254141e-01,9.305751491137232989e-01,9.569157683533344727e-01,9.616455819827598450e-01,9.346379353820071234e-01,8.934642555624969784e-01,8.153711486888195470e-01,7.204825745266092429e-01,6.069579339209585367e-01,4.653360039780311541e-01,3.156573952803345406e-01,1.566245493147762069e-01,9.993210646784980722e-02,1.429559538390783868e-01,2.047209534531532205e-01,2.530769812671527230e-01,2.324088095602793169e-01,1.976872720673309436e-01,1.509441807091858601e-01,1.391698822220684417e-01,1.253331899669909710e-01,8.874840210888723657e-02,8.167881099354196150e-02,9.674561743526602364e-02,1.019270378520522879e-01,9.664108987496768111e-02,6.412068489892513989e-02,4.632020684442868241e-02,3.817473462019388419e-02,4.310492812234532900e-02,4.083929899324998530e-02,1.940832711421996981e-02,2.619232569831126539e-02,4.909916454704350841e-02,4.179008384671635545e-02,3.266595573863352586e-02,2.101518688987711464e-02,2.497715903195190518e-02,3.647517025958818548e-02,3.318803470384863730e-02,3.661726244941186648e-02,5.213594413732057509e-02,5.103077523006909616e-02,4.220067762961336039e-02,1.983818557301957053e-02,1.206385001220984868e-02,2.714429296146142478e-02,2.590657363955689227e-02,1.885880756476865025e-02,1.312101976867006622e-02,1.371012751457300477e-02,2.296221531029372931e-02,1.873868498067072022e-02,1.148877273579585606e-02,1.298126256082845695e-02,1.486838244186466929e-02,1.722905839010517234e-02,1.620913885827386658e-02,1.474116603602773114e-02,1.569699346554787739e-02,1.248687309322064377e-02,4.888621036280638328e-03,1.146768017218201784e-02,1.920405369362690462e-02,1.883852359604174659e-02,1.391947867835238023e-02,4.788432552066630710e-03,1.494103712276901794e-02,2.532299313743660921e-02,2.497110127712536681e-02,2.262281585386124311e-02,1.865392859714116655e-02,2.844145716606405472e-02,3.623357910254031145e-02,3.267242138506264160e-02,2.600123355794289187e-02,1.711846876396661346e-02,2.503714228920777760e-02,2.954255586296473252e-02,2.149949401343644387e-02,1.914063352060128842e-02,2.031196123876511175e-02,2.627035185163717479e-02,2.816682142537678749e-02,2.037411964286195420e-02,2.454252131802647091e-02,3.516991886033797587e-02,3.706633592440630731e-02,3.814059786958685916e-02,3.771410657487528351e-02,4.509156533806167599e-02,5.572836955151710264e-02,5.202150213683862101e-02,4.891438013431489984e-02,4.682787751738811538e-02,5.033569967357941211e-02,5.516219594990226516e-02,4.518168229046845563e-02,3.983058535608881984e-02,4.134894549759591392e-02,4.212720086519746582e-02,4.143410896312009484e-02,2.853746490184452811e-02,2.264919859910950045e-02
3.875565097412517757e-01,4.251959608611777242e-01,4.408494451166296013e-01,4.146051434605365626e-01,4.199883117501753138e-01,4.396827048806555838e-01,4.590597774156194300e-01,4.837301200870047779e-01,5.171617374669497114e-01,5.653793172087862029e-01,6.187123024642742219e-01,6.632254343732534307e-01,7.147289037846169535e-01,7.763295273660912876e-01,8.313841981221852251e-01,8.834969690666925057e-01,9.282192401615658728e-01,9.559771941012520369e-01,9.622802763446716146e-01,9.369694595849951124e-01,8.975078170481213258e-01,8.210028572551389958e-01,7.275572899128028848e-01,6.153146100841972999e-01,4.745369859581386462e-01,3.254146859044602658e-01,1.659539275253455737e-01,1.040850648332011658e-01,1.373057415283617799e-01,1.993284298372927088e-01,2.496817904669282884e-01,2.309003175227837823e-01,1.967903384271448286e-01,1.495680227440827903e-01,1.368880862905683948e-01,1.224014550052545808e-01,8.622799063852662482e-02,7.937444857844538904e-02,9.451084824834961318e-02,1.007933370133658607e-01,9.662429305095941723e-02,6.499488719146974403e-02,4.666479596136718228e-02,3.705791110107790887e-02,4.285420054168612158e-02,4.098329664702275721e-02,1.849636798403432245e-02,2.509394220561542502e-02,4.831123236123646691e-02,4.180996780010645675e-02,3.286795684380999782e-02,2.007729789836591033e-02,2.401404436672297318e-02,3.602344788290105099e-02,3.208465709275132999e-02,3.522049042880691372e-02,5.109064719203258026e-02,5.063951865801909896e-02,4.255079222736864869e-02,2.005733957042139110e-02,1.212732569493190499e-02,2.701336591039250543e-02,2.616576502114989489e-02,1.960134898901211981e-02,1.294050429071688310e-02,1.323891279775838391e-02,2.306614492441514883e-02,1.918430627621482698e-02,1.213153199474996391e-02,1.323019919595762664e-02,1.510660089747434612e-02,1.791628399936191426e-02,1.632338844645795164e-02,1.416963213103499160e-02,1.530826920628079388e-02,1.252668683847638423e-02,5.615806657325571674e-03,1.148965789850359825e-02,1.850691687825765583e-02,1.868738565018805003e-02,1.373758573128485913e-02,4.042287273360593153e-03,1.410604604829392324e-02,2.456721368014666562e-02,2.464907010001342325e-02,2.223799279143533550e-02,1.780323986800191882e-02,2.768652216352456702e-02,3.571677923947671335e-02,3.263808466539501463e-02,2.592808632694751023e-02,1.663582753383994681e-02,2.454397037048879765e-02,2.921747696054119436e-02,2.173699937920617331e-02,1.891596038724297282e-02,1.898867799288971037e-02,2.535473414603985065e-02,2.757371114016093569e-02,1.977062532377552376e-02,2.358534007120404591e-02,3.367366712309223520e-02,3.614278190703948401e-02,3.745236651083683199e-02,3.658517027751887613e-02,4.399797840832050944e-02,5.490227946408392928e-02,5.183748883381287392e-02,4.899881889947893532e-02,4.654495085121354570e-02,5.029984598214122526e-02,5.561163931750622014e-02,4.599476323622359725e-02,4.066036645200470090e-02,4.168061636665443270e-02,4.283728688359497716e-02,4.276918486102603001e-02,2.999071366167851277e-02,2.380955067071085368e-02
3.881238822394438848e-01,4.247505869155660529e-01,4.398305480984479043e-01,4.138497339451550072e-01,4.181099458152242598e-01,4.360921663832418305e-01,4.549075704537278164e-01,4.789882743636391660e-01,5.117839573181164337e-01,5.597894621489329925e-01,6.130678806876861398e-01,6.574301151267700760e-01,7.090239570617999920e-01,7.710634542687516690e-01,8.268047025647808912e-01,8.797359334699897948e-01,9.257468369831897137e-01,9.549206849260168939e-01,9.628006096474901465e-01,9.391955927465132081e-01,9.014575854446774672e-01,8.265601176035635156e-01,7.345808690685021736e-01,6.236478638730338364e-01,4.837500858848284846e-01,3.352259670417803705e-01,1.754028688567518257e-01,1.083015537157807628e-01,1.315445400023534939e-01,1.937978588114089296e-01,2.461557284311439442e-01,2.293026196830800223e-01,1.958599436328846699e-01,1.482261919386972937e-01,1.345991666351131211e-01,1.194271699185109614e-01,8.369924352187635419e-02,7.704851110974994532e-02,9.220567418600511544e-02,9.958760022029668202e-02,9.654680981397820161e-02,6.584434515762836726e-02,4.699318296004403178e-02,3.591545570853191260e-02,4.257457598078283334e-02,4.111091633262796419e-02,1.761796434138937495e-02,2.400686827162656217e-02,4.747111844270726633e-02,4.178917255440048328e-02,3.304132837875002615e-02,1.912086784099185227e-02,2.302994416423830015e-02,3.554235007600439755e-02,3.096329138268650444e-02,3.380461630912625498e-02,5.000263175113030256e-02,5.020134468997246302e-02,4.286244595596960111e-02,2.033857448160939635e-02,1.227461440759935844e-02,2.686451552747082597e-02,2.639183441591005930e-02,2.032549754568803088e-02,1.273891985535081928e-02,1.274028646964601649e-02,2.313129990105365283e-02,1.962240863750061917e-02,1.280232005153602963e-02,1.347251762780526593e-02,1.532761423237490560e-02,1.860458967090501334e-02,1.647493470450113809e-02,1.366227303483680960e-02,1.492745127014465795e-02,1.255945310737167919e-02,6.364509138620069381e-03,1.151697682597314226e-02,1.779456721655561791e-02,1.852263254210306104e-02,1.359307831743922744e-02,3.430226008829947819e-03,1.333363410600192298e-02,2.379718511451959714e-02,2.431692026774545309e-02,2.185045888078176318e-02,1.695990853766409304e-02,2.692398157329923408e-02,3.517948715820874706e-02,3.258611200977649947e-02,2.586606693399028448e-02,1.621150102097464879e-02,2.406755451179111438e-02,2.888203960693822014e-02,2.199375371797509734e-02,1.871101866692957000e-02,1.766752045206450294e-02,2.442490887527693985e-02,2.697454637552373219e-02,1.922485770588382506e-02,2.266240350446107818e-02,3.214105591587573113e-02,3.518055952097357691e-02,3.672617951980611251e-02,3.542404255771201826e-02,4.285077354018687612e-02,5.398956493072092772e-02,5.157543259350896858e-02,4.901522361954962353e-02,4.620642808831847137e-02,5.019282011414089029e-02,5.596703019854321060e-02,4.675376697016049576e-02,4.145604278152838218e-02,4.196847329704216784e-02,4.348924171818091544e-02,4.403887397109985252e-02,3.145756381839536625e-02,2.501265285056900045e-02
3.886842787442459923e-01,4.242970195950778178e-01,4.388060792716347303e-01,4.130986899179692751e-01,4.162312733249924901e-01,4.324900544332356267e-01,4.507331398973660752e-01,4.742133733088771397e-01,5.063619895298456797e-01,5.541438990683209553e-01,6.073562702896876386e-01,6.515588643194666352e-01,7.032339156964116933e-01,7.657025165748191364e-01,8.221214347531806688e-01,8.758627785174724067e-01,9.231565442180771353e-01,9.537444997818411707e-01,9.632045189960717346e-01,9.413139748409483643e-01,9.053109269375879675e-01,8.320401333504962027e-01,7.415504414657760890e-01,6.319548487302627526e-01,4.929727124857052334e-01,3.450878420806269276e-01,1.849614332976351194e-01,1.125725908538825759e-01,1.256716335611841873e-01,1.881283913474725844e-01,2.424965497273334769e-01,2.276129492870193061e-01,1.948946420465164087e-01,1.469201398323580210e-01,1.323048049422736183e-01,1.164127204258555426e-01,8.116806188407016398e-02,7.470584791733671237e-02,8.983046738189263969e-02,9.830899221814062838e-02,9.640702203354359345e-02,6.666700845782747020e-02,4.730491811850542905e-02,3.474985269767865564e-02,4.226653087551118793e-02,4.122801544743583124e-02,1.680290771152944188e-02,2.295470451511212595e-02,4.657901819840308544e-02,4.172665232011465997e-02,3.318520266364157617e-02,1.814724338738093329e-02,2.202597039630301706e-02,3.503160185209774902e-02,2.982686407244855564e-02,3.237374467333162947e-02,4.887353835917333800e-02,4.971617697771964217e-02,4.313397879534888041e-02,2.067476145119109127e-02,1.249757544170440604e-02,2.669557185653536127e-02,2.658362173440308868e-02,2.102949378880548947e-02,1.251616479813334737e-02,1.221459020824098435e-02,2.315680241326287594e-02,2.004823331210865700e-02,1.349273628424752305e-02,1.370464530769087072e-02,1.552916176375230065e-02,1.928880713895542859e-02,1.666661333489526109e-02,1.323003553547090830e-02,1.455773983982126471e-02,1.257952293167731092e-02,7.119069013039209040e-03,1.154141212806246604e-02,1.706756519693863883e-02,1.834329546624387935e-02,1.354087969978778200e-02,3.116178850252416480e-03,1.270941771667630400e-02,2.301292466559289387e-02,2.397405575789138613e-02,2.146025260150148661e-02,1.612562046676441208e-02,2.615490024299128163e-02,3.462191872532702219e-02,3.251598108770735462e-02,2.581606965213287946e-02,1.584933240467946078e-02,2.361010150678526098e-02,2.853568716984355991e-02,2.226437210322387492e-02,1.852302859388208628e-02,1.635293057800767114e-02,2.348323317961133541e-02,2.637072958581970772e-02,1.874069636196723163e-02,2.177771630708427025e-02,3.057494496344497978e-02,3.418073524826099885e-02,3.596260266883129220e-02,3.423333214250344481e-02,4.165248669753335298e-02,5.299167122489276127e-02,5.123454079083766821e-02,4.896204828355576327e-02,4.581253610780019331e-02,5.001419907408257565e-02,5.622627708088479698e-02,4.745413538070162446e-02,4.221305796338697958e-02,4.221162432065125869e-02,4.408104736176285399e-02,4.523797376376306051e-02,3.292528936855682736e-02,2.624684351735089710e-02
3.892374457538113064e-01,4.238352191552039461e-01,4.377761564079287737e-01,4.123521794905505855e-01,4.143527626642364847e-01,4.288772294033575960e-01,4.465370985220846189e-01,4.694058253803704561e-01,5.008961098765465358e-01,5.484426972636480269e-01,6.015773177552832252e-01,6.456114820687736122e-01,6.973584724658548062e-01,7.602462116503454492e-01,8.173336472768450989e-01,8.718764851896816381e-01,9.204469724463142377e-01,9.524468965692112210e-01,9.634899320229720621e-01,9.433222265987009081e-01,9.090651781724736757e-01,8.374400672375452714e-01,7.484630843618298446e-01,6.402326545381173961e-01,5.022022040870307569e-01,3.549972012082445727e-01,1.946221981219202757e-01,1.168918265556374292e-01,1.196869933934980035e-01,1.823193823931341107e-01,2.387020237511184306e-01,2.258285179598954473e-01,1.938929161869283879e-01,1.456511841163246335e-01,1.300067101256403845e-01,1.133607827395796130e-01,7.864114767327531896e-02,7.235200216668923046e-02,8.738572382989222287e-02,9.695672231329607871e-02,9.620332703064729540e-02,6.746082720135514188e-02,4.759971830384058383e-02,3.356403786695455471e-02,4.193074596604551979e-02,4.134437933916137314e-02,1.609833021721770660e-02,2.197475616893444089e-02,4.563545359131449680e-02,4.162139365278620662e-02,3.329881470015644274e-02,1.715816180039509906e-02,2.100353570114067009e-02,3.449096306638113618e-02,2.867892092967464640e-02,3.093280431776525286e-02,4.770535365049119458e-02,4.918406756092322252e-02,4.336364873809429171e-02,2.105630379396536758e-02,1.278508142839100345e-02,2.650378443588505273e-02,2.674001156738376600e-02,2.171161298763871206e-02,1.227229286470082545e-02,1.166234481672690990e-02,2.314184468678100876e-02,2.045763395761256848e-02,1.419557199275573410e-02,1.392347892083359642e-02,1.570918874751918090e-02,1.996426205253404654e-02,1.690139688017262484e-02,1.288358913086392818e-02,1.420227678809993753e-02,1.258356497093441467e-02,7.870792374065823174e-03,1.155871320245457218e-02,1.632667818065884624e-02,1.814849385596993547e-02,1.363808528320574649e-02,3.270369280971877676e-03,1.232232390301669922e-02,2.221449959288746348e-02,2.361988743199139318e-02,2.106749893211301919e-02,1.530232728647239887e-02,2.538046011396743323e-02,3.404427775619531249e-02,3.242721037001840279e-02,2.577876929353280222e-02,1.555246248171660711e-02,2.317351533093746363e-02,2.817798439075466788e-02,2.254389982528202940e-02,1.834986734808373779e-02,1.505018300991900308e-02,2.253247272276335048e-02,2.576346859788801458e-02,1.832087094873443428e-02,2.093441891727457899e-02,2.897828551936947397e-02,3.314448191420630435e-02,3.516232316425318971e-02,3.301579688935632473e-02,4.040585909002612081e-02,5.191031586204697401e-02,5.081427073730623856e-02,4.883795466018188425e-02,4.536363362900119184e-02,4.976374516279523375e-02,5.638757016813077810e-02,4.809154679623729028e-02,4.292704220159109657e-02,4.240930740544074373e-02,4.461084877623049116e-02,4.636159802827184706e-02,3.438253300494387849e-02,2.750192964639160825e-02
3.897831249799137976e-01,4.233651469927197653e-01,4.367409007009039335e-01,4.116103695266954965e-01,4.124748979651670089e-01,4.252545931245551025e-01,4.423200936429421692e-01,4.645660679605123078e-01,4.953866196008681055e-01,5.426859463445710130e-01,5.957308845842854694e-01,6.395877856278959772e-01,6.913973382486546804e-01,7.546940542586273448e-01,8.124406081572371763e-01,8.677760471822819621e-01,9.176167391101176518e-01,9.510261330248102052e-01,9.636547676875861779e-01,9.452179501695665564e-01,9.127176467555210282e-01,8.427570413684658535e-01,7.553158227055490892e-01,6.484783071201007942e-01,5.114358272106012127e-01,3.649510920113541168e-01,2.043793452752581952e-01,1.212546823420713182e-01,1.135912805501808759e-01,1.763704568757991087e-01,2.347699380422458015e-01,2.239465182018918754e-01,1.928531718324941191e-01,1.444204907213839650e-01,1.277066187811640441e-01,1.102743586193132008e-01,7.612611437701698180e-02,6.999330609944115489e-02,8.487207479540608002e-02,9.553004781033319626e-02,9.593413945041627533e-02,6.822375059050876656e-02,4.787749932482844584e-02,3.236148884675969783e-02,4.156814728426941330e-02,4.147508569138670664e-02,1.557473157825274221e-02,2.112278931790716185e-02,4.464136811629804136e-02,4.147241787940176422e-02,3.338155852813804586e-02,1.615597710097842893e-02,1.996452238192621825e-02,3.392023227416126469e-02,2.752380096766258305e-02,2.948777514196924965e-02,4.650047918172612454e-02,4.860521097168322979e-02,4.354971086983885215e-02,2.147287060781243734e-02,1.312511724525516899e-02,2.628626669186581374e-02,2.685993249750101217e-02,2.237016423551572986e-02,1.200758381182237891e-02,1.108433475680248130e-02,2.308570865273592079e-02,2.084698193022038043e-02,1.490461457058349197e-02,1.412631586024204119e-02,1.586582315605660279e-02,2.062669765925839380e-02,1.718188880557995971e-02,1.263245333570460309e-02,1.386385251319920305e-02,1.256933550184456336e-02,8.614186771568615661e-03,1.156654218216892314e-02,1.557292725844231299e-02,1.793745109976436353e-02,1.384978109530266878e-02,3.793831783490956688e-03,1.212097013579702814e-02,2.140203970250161361e-02,2.325383701576530168e-02,2.067243594399706397e-02,1.449232088908509498e-02,2.460199547766110661e-02,3.344675306191033370e-02,3.231935315213857463e-02,2.575453693490567866e-02,1.532311356570045281e-02,2.275929610292641569e-02,2.780862040951884162e-02,2.282783950489679359e-02,1.819022983349785627e-02,1.376574755957433831e-02,2.157595747318292317e-02,2.515371393906767547e-02,1.796669105150890122e-02,2.013457580555740034e-02,2.735411068607395552e-02,3.207307765577054048e-02,3.432615372553884936e-02,3.177434851609927530e-02,3.911384129838014340e-02,5.074749171113331070e-02,5.031433841148005848e-02,4.864182127649915172e-02,4.486021129894303405e-02,4.944141052697169358e-02,5.644939502230005013e-02,4.866192727701641740e-02,4.359381842944999585e-02,4.256088730107664836e-02,4.507695764246777426e-02,4.740517189924822045e-02,3.581908119506695132e-02,2.876891056512319300e-02
3.903210532866970839e-01,4.228867656799439878e-01,4.357004367840444647e-01,4.108734254314697631e-01,4.105981796080226953e-01,4.216230904844383565e-01,4.380828086312535952e-01,4.596945687448081852e-01,4.898338465964139354e-01,5.368737571130824948e-01,5.898168478567842321e-01,6.334876100300617097e-01,6.853502427481326098e-01,7.490455773642388237e-01,8.074416017218896124e-01,8.635604718422412729e-01,9.146644694700372114e-01,9.494804676497721196e-01,9.636969371157830810e-01,9.469987298285349464e-01,9.162656117977715509e-01,8.479881374891378165e-01,7.621056290848955417e-01,6.566887677800464784e-01,5.206707752452666149e-01,3.749466397836016540e-01,2.142281039628672334e-01,1.256578604145844602e-01,1.073859529266396884e-01,1.702816070571395168e-01,2.306981018799421079e-01,2.219641260844123221e-01,1.917737331723832761e-01,1.432290557390113184e-01,1.254062971234484736e-01,1.071568145918711246e-01,7.363160727783087112e-02,6.763698417017845188e-02,8.229029921731734198e-02,9.402827769349630938e-02,9.559789329844227412e-02,6.895372592572188153e-02,4.813841700267422474e-02,3.114633781543356753e-02,4.117995712105090855e-02,4.163921594223767703e-02,1.532027357088235064e-02,2.046853090994094765e-02,4.359804522637917429e-02,4.127878381793319285e-02,3.343309357931221332e-02,1.514408939063803528e-02,1.891160275226535029e-02,3.331925138528688685e-02,2.636686972222510722e-02,2.804599178877504456e-02,4.526182056862666087e-02,4.797996041971077513e-02,4.369047383008231589e-02,2.191460518168359545e-02,1.350624272853273924e-02,2.604030664793644673e-02,2.694235741066203921e-02,2.300349678122935032e-02,1.172268659398752536e-02,1.048177496907216379e-02,2.298780137565044346e-02,2.121307825134113867e-02,1.561446494477402094e-02,1.431079082063837701e-02,1.599735639282994989e-02,2.127220960061421487e-02,1.750976188856677440e-02,1.248400718079835034e-02,1.354457286527979351e-02,1.253515607027862015e-02,9.345357730222330836e-03,1.156361986070048552e-02,1.480765047190804769e-02,1.770951579059032097e-02,1.410726941312559837e-02,4.488719716724832651e-03,1.200246622224200067e-02,2.057575238683353666e-02,2.287534203799045790e-02,2.027544869441780598e-02,1.369832797865273843e-02,2.382103834772669390e-02,3.282951594136387929e-02,3.219199154067630547e-02,2.574336654225013038e-02,1.516240334098763708e-02,2.236845278564539297e-02,2.742740646880941283e-02,2.311215347600579714e-02,1.804384521749750891e-02,1.250785000449893512e-02,2.061782304562665910e-02,2.454211566918454782e-02,1.767785931174930755e-02,1.937902773393695294e-02,2.570552553712107668e-02,3.096790432870136223e-02,3.345503681142467794e-02,3.051205947051305323e-02,3.777959885434674370e-02,4.950546968294902012e-02,4.973472700732017859e-02,4.837275228312236386e-02,4.430289144118424588e-02,4.904734133959336162e-02,5.641054592455874150e-02,4.916146235513180196e-02,4.420940893748643435e-02,4.266585187409740326e-02,4.547785618589855750e-02,4.836443039600352850e-02,3.722566936023939677e-02,3.003973292600708653e-02
3.908509626293981687e-01,4.224000389984889914e-01,4.346548927463631529e-01,4.101415109330510678e-01,4.087231247370824994e-01,4.179837110757552709e-01,4.338259645028864075e-01,4.547918272111315385e-01,4.842381466605307772e-01,5.310062624872950998e-01,5.838351008136876130e-01,6.273108087485603779e-01,6.792169352338736088e-01,7.433003329587122288e-01,8.023359295044694139e-01,8.592287811345692417e-01,9.115887975967649215e-01,9.478081606773876011e-01,9.636143444813145553e-01,9.486621327254806113e-01,9.197063245050032254e-01,8.531303973124323425e-01,7.688294237171057199e-01,6.648609328803651852e-01,5.299041671874884507e-01,3.849809964645724003e-01,2.241643976216932954e-01,1.300990871016434181e-01,1.010734934089659448e-01,1.640533407881396011e-01,2.264843501999010966e-01,2.198785041715682897e-01,1.906528380980301862e-01,1.420776874075090901e-01,1.231075448572956088e-01,1.040119251189897953e-01,7.116742927803219876e-02,6.529126046284808305e-02,7.964133691699447348e-02,9.245077660135253561e-02,9.519304413875830095e-02,6.964869795324091228e-02,4.838291905132086068e-02,2.992351223864221643e-02,4.076775744685739306e-02,4.185180203126431103e-02,1.540515905258055956e-02,2.006756727036635574e-02,4.250657617184927517e-02,4.103959081161209776e-02,3.345356092597507464e-02,1.412782176653405719e-02,1.784889295880443330e-02,3.268791135221995464e-02,2.521483039931294440e-02,2.661654800107993157e-02,4.399290300126069975e-02,4.730884648183411589e-02,4.378433023637928745e-02,2.237272944748177131e-02,1.391832380690618230e-02,2.576352389870120718e-02,2.698630460397873423e-02,2.361002033999548902e-02,1.141893458010435902e-02,9.856673987293566169e-03,2.284772785402404416e-02,2.155307803491280164e-02,1.632037995184820039e-02,1.447482162127662272e-02,1.610222784422724734e-02,2.189719153140455218e-02,1.788524352747968005e-02,1.244257560286667584e-02,1.324555217481705391e-02,1.247967264889822403e-02,1.006126469989042545e-02,1.154936152766117101e-02,1.403258973957811559e-02,1.746419092827692851e-02,1.437454159344511533e-02,5.252735524347393326e-03,1.191379474998021173e-02,1.973594100837571322e-02,2.248386201031054438e-02,1.987711207541646360e-02,1.292362926239048852e-02,2.303937622879417488e-02,3.219271819233466420e-02,3.204473048033210092e-02,2.574482314823258594e-02,1.507021741961968309e-02,2.200144285982007231e-02,2.703427007522352099e-02,2.339324947705222896e-02,1.791180104409533999e-02,1.128735006111368511e-02,1.966338866095524579e-02,2.392900926183512758e-02,1.745240822043022527e-02,1.866733911890106415e-02,2.403569726490491915e-02,2.983044533852204777e-02,3.255004916764746292e-02,2.923217274889003403e-02,3.640651991678735266e-02,4.818680110583744430e-02,4.907569532164821058e-02,4.803008618096715060e-02,4.369242746871210975e-02,4.858188158653867217e-02,5.627013889200113694e-02,4.958660931551060747e-02,4.477004263377900445e-02,4.272380798943142127e-02,4.581220093676427463e-02,4.923542070316924701e-02,3.859382378416044423e-02,3.130708493559040267e-02
3.913725799930736216e-01,4.219049319723890967e-01,4.336044001454051888e-01,4.094147878573602961e-01,4.068502677918642285e-01,4.143374908943777690e-01,4.295503215815611453e-01,4.498583761757743993e-01,4.785999048230026309e-01,5.250836184730909295e-01,5.777855534527358561e-01,6.210572543728486439e-01,6.729971853012421956e-01,7.374578929082633572e-01,7.971229111713971083e-01,8.547800126403439780e-01,9.083883673994914698e-01,9.460074750813826094e-01,9.634048879302730128e-01,9.502057096802344338e-01,9.230370088149241203e-01,8.581808228898807345e-01,7.754840744837208089e-01,6.729916334615272389e-01,5.391330464467017913e-01,3.950513067145010049e-01,2.341846130321971198e-01,1.345770308283883443e-01,9.465781365490831545e-02,1.576869154559575881e-01,2.221265478856219444e-01,2.176868046959113956e-01,1.894886337355770056e-01,1.409669884172389254e-01,1.208122015332131760e-01,1.008439189838183370e-01,6.874466487672860338e-02,6.296546370235202306e-02,7.692630222751072055e-02,9.079696916054982858e-02,9.471807145181579402e-02,7.030660853876578853e-02,4.861181019267084985e-02,2.869891011092289002e-02,4.033356864938655861e-02,4.211268640530899804e-02,1.583236015359260757e-02,1.992247302957879385e-02,4.136712254996670335e-02,4.075398211218701772e-02,3.344406451735650737e-02,1.311637765002589620e-02,1.678341179631622285e-02,3.202615914003918707e-02,2.407613231585754854e-02,2.521082678928893844e-02,4.269801959842441791e-02,4.659259881568449113e-02,4.382976826106017854e-02,2.283970962418924860e-02,1.435273207942466822e-02,2.545391491229298184e-02,2.699083954412912628e-02,2.418826016687321973e-02,1.109912468085645990e-02,9.212727562765560263e-03,2.266546451768136974e-02,2.186442853659947838e-02,1.701814199356666002e-02,1.461656508953756983e-02,1.617901297499763080e-02,2.249829060784474741e-02,1.830677115429527047e-02,1.250882714210019113e-02,1.296671185990066685e-02,1.240173668381019598e-02,1.075934908615454322e-02,1.152373865288898458e-02,1.325001256362035723e-02,1.720117469749941896e-02,1.463627482596992213e-02,6.044017599437417725e-03,1.183351774527281394e-02,1.888302781393343815e-02,2.207888624249814899e-02,1.947824417271027883e-02,1.217220758073011763e-02,2.225912442360421933e-02,3.153649071500278650e-02,3.187719189982624046e-02,2.575802116273427991e-02,1.504516372561356778e-02,2.165814962806188529e-02,2.662924703973532092e-02,2.366795599609681361e-02,1.779704936799049453e-02,1.011911832426728303e-02,1.871974985902325958e-02,2.331443529525861758e-02,1.728678036467976367e-02,1.799785574023466880e-02,2.234784548110191338e-02,2.866228288411153124e-02,3.161240694031242082e-02,2.793811574364284123e-02,3.499822590434335801e-02,4.679431995255733251e-02,4.833778602853916473e-02,4.761340439312480161e-02,4.302970296814123685e-02,4.804557644091332624e-02,5.602762429432803920e-02,4.993411005033198541e-02,4.527216301365973028e-02,4.273447699430647090e-02,4.607882631903867376e-02,5.001450779061851482e-02,3.991573869420979304e-02,3.256422887394305743e-02
3.918856273313834349e-01,4.214014109004957653e-01,4.325490940174738230e-01,4.086934158954790841e-01,4.049801610530779916e-01,4.106855140858430842e-01,4.252566812407252428e-01,4.448947834427008363e-01,4.729195367571070729e-01,5.191060051874760717e-01,5.716681331404026567e-01,6.147268393010032472e-01,6.666907836492090844e-01,7.315178498239560678e-01,7.918018854755795033e-01,8.502132205867717341e-01,9.050618336917726214e-01,9.440766776259306159e-01,9.630664605499046349e-01,9.516269960245533621e-01,9.262548620834163415e-01,8.631363770320992224e-01,7.820663970125413256e-01,6.810776349049354472e-01,5.483543797123903163e-01,4.051546845997274215e-01,2.442854449033242115e-01,1.390913891435054117e-01,8.814494850138436532e-02,1.511847223256029271e-01,2.176225945004182372e-01,2.153861730236012184e-01,1.882791723281485030e-01,1.398973388071155788e-01,1.185221560497678739e-01,9.765752740921128383e-02,6.637578992208677253e-02,6.067011876801652048e-02,7.414649736373735145e-02,8.906634476923562527e-02,9.417148115123254171e-02,7.092539665240446545e-02,4.882633309137431044e-02,2.747961659707194929e-02,3.987994663753793856e-02,4.240650371940785784e-02,1.653752846620661771e-02,1.998274214730386480e-02,4.017892093371477208e-02,4.042114866308949700e-02,3.340786340928298542e-02,1.212769826698895451e-02,1.572870040018901905e-02,3.133400613096502807e-02,2.296148858025746226e-02,2.384317196170063907e-02,4.138241702101579100e-02,4.583217153340070349e-02,4.382537304377762816e-02,2.330918251508069805e-02,1.480225441875167303e-02,2.510983746646530679e-02,2.695507717198063202e-02,2.473701990306676271e-02,1.076977361246365256e-02,8.557902616942517082e-03,2.244185317930340665e-02,2.214481985273101389e-02,1.770395401083054224e-02,1.473438233514374335e-02,1.622641461581021335e-02,2.307237164410068722e-02,1.877091031705976909e-02,1.267965963935618542e-02,1.270674451695940829e-02,1.230034326157130112e-02,1.143733661276563791e-02,1.148726620351390310e-02,1.246288535740476718e-02,1.692041830627235427e-02,1.488508453360846973e-02,6.843849043527868749e-03,1.175235143529690211e-02,1.801758312817279897e-02,2.165994385922018206e-02,1.907997092311419784e-02,1.144892712778938955e-02,2.148281396882497848e-02,3.086094278025321852e-02,3.168900905793526485e-02,2.578163687757593914e-02,1.508461957149828322e-02,2.133790218692408272e-02,2.621247247273405384e-02,2.393349194695175430e-02,1.770519017189304406e-02,9.024152042020502223e-03,1.779668911051403984e-02,2.269819113179915443e-02,1.717604360090668053e-02,1.736786619793045591e-02,2.064523266402910201e-02,2.746509460689124799e-02,3.064347169280558919e-02,2.663351956603020668e-02,3.355858624162418036e-02,4.533114515451689558e-02,4.752183392463769918e-02,4.712253967661532428e-02,4.231573046789286613e-02,4.743917521380598690e-02,5.568279902303471113e-02,5.020100447802471055e-02,4.571243686626014907e-02,4.269768986511764119e-02,4.627674799039382947e-02,5.069838274749823015e-02,4.118418382894215718e-02,3.380486757718676599e-02
3.923898215054716920e-01,4.208894433880153718e-01,4.314891128849089319e-01,4.079775523638654589e-01,4.031133752027217798e-01,4.070289147390419027e-01,4.209458877277034716e-01,4.399016535529574057e-01,4.671974902801571683e-01,5.130736279378862452e-01,5.654827852401335120e-01,6.083194764488131234e-01,6.602975428767465793e-01,7.254798179547131687e-01,7.863722112378422890e-01,8.455274769100444843e-01,9.016078632958939298e-01,9.420140399585746893e-01,9.625969513831303948e-01,9.529235124925556910e-01,9.293570558216290856e-01,8.679939837799928171e-01,7.885731548086887255e-01,6.891156366414517009e-01,5.575650558807527801e-01,4.152881970518770838e-01,2.544637884983827480e-01,1.436431972998361284e-01,8.154427429328994781e-02,1.445509478996498953e-01,2.129704295442877982e-01,2.129737514519715047e-01,1.870224075830995702e-01,1.388688797366917915e-01,1.162393601050405872e-01,9.445803139090383493e-02,6.407474809967626805e-02,5.841700769913699132e-02,7.130342446661427913e-02,8.725846295619443804e-02,9.355180825850734072e-02,7.150299865225770435e-02,4.902826739146716462e-02,2.627416816371973274e-02,3.941010100566679636e-02,4.271362753760933606e-02,1.743739425491149311e-02,2.018297438599145344e-02,3.894101932494466872e-02,4.004033335621581119e-02,3.335368643185616239e-02,1.120197900365181923e-02,1.471489363138320933e-02,3.061153774882725137e-02,2.188448629987744046e-02,2.253167987870239794e-02,4.005251450752256998e-02,4.502877300898550095e-02,4.376982417158019334e-02,2.377578546818825966e-02,1.526088580940379580e-02,2.472997065383732498e-02,2.687818468156818325e-02,2.525596808178533909e-02,1.044922349214950918e-02,7.913715919885598235e-03,2.218036364833149768e-02,2.239214651347902485e-02,1.837435623083965436e-02,1.482681220875047695e-02,1.624325711072487771e-02,2.361648872157565832e-02,1.927255072309805653e-02,1.294860426496493959e-02,1.246325377520149033e-02,1.217459796618281659e-02,1.209312722088197803e-02,1.144108185293657431e-02,1.167512403496181322e-02,1.662220921938746543e-02,1.511669188476626180e-02,7.642517220026610360e-03,1.166581633855291386e-02,1.714036344457351216e-02,2.122661685048888094e-02,1.868380067729644156e-02,1.075973978694568130e-02,2.071349328915828014e-02,3.016616203366043192e-02,3.147982117360469123e-02,2.581395337078914304e-02,1.518486640867769757e-02,2.103953582148505169e-02,2.578417151356220127e-02,2.418743392473383588e-02,1.764559914562129420e-02,8.032598743069038760e-03,1.690797708461133642e-02,2.207990665654125176e-02,1.711420628751455369e-02,1.677384020027291797e-02,1.893115462519530737e-02,2.624064964387054499e-02,2.964475779080173734e-02,2.532224578426349806e-02,3.209173877679228487e-02,4.380068333895864585e-02,4.662897427885041163e-02,4.655758438360659696e-02,4.155164990927207036e-02,4.676363387854437503e-02,5.523581817789219306e-02,5.038464449187389504e-02,4.608776371295064678e-02,4.261338208649081971e-02,4.640516587979617164e-02,5.128407317645216484e-02,4.239243712654046370e-02,3.502303989808890072e-02
3.928848742229936741e-01,4.203689983770582117e-01,4.304245987602385304e-01,4.072673519573942191e-01,4.012504998974737447e-01,4.033688787250827024e-01,4.166188300739120942e-01,4.348796296417571372e-01,4.614342469514210454e-01,5.069867183621696860e-01,5.592294737573827446e-01,6.018350999758029785e-01,6.538172982980410275e-01,7.193434341035718216e-01,7.808332683566294730e-01,8.407218723517583259e-01,8.980251361867244153e-01,9.398178397472550794e-01,9.619942464901172219e-01,9.540927661612036426e-01,9.323407364857598800e-01,8.727505289288093326e-01,7.950010594370189310e-01,6.971022719079403851e-01,5.667618850396497487e-01,4.254488517719812735e-01,2.647166636591555822e-01,1.482355073178580340e-01,7.487074090779294311e-02,1.377927752756556434e-01,2.081680383435884907e-01,2.104466833925084379e-01,1.857161916036129956e-01,1.378814984233330265e-01,1.139658465710717550e-01,9.125130447870834216e-02,6.185696697238990405e-02,5.621917595323829009e-02,6.839879479946217589e-02,8.537295949383634508e-02,9.285761973534800706e-02,7.203734885588924941e-02,4.922004782942820955e-02,2.509286681407323083e-02,3.892803541854880645e-02,4.301803691236753130e-02,1.846454399713186312e-02,2.047031543370100848e-02,3.765280935701598858e-02,3.961083586795129813e-02,3.330546192691810625e-02,1.044135859978563563e-02,1.381829277368129029e-02,2.985892313881106930e-02,2.086219846504134764e-02,2.129899530205098951e-02,3.871613085846410673e-02,4.418390105266371826e-02,4.366189268163381959e-02,2.423496906946738874e-02,1.572360118769107473e-02,2.431327061685891258e-02,2.675938472772711879e-02,2.574831982196609109e-02,1.020472140758326741e-02,7.357675519375478541e-03,2.189514001316179154e-02,2.260447809583432388e-02,1.902616089893265777e-02,1.489255168309567764e-02,1.622848305528477517e-02,2.412786313310526926e-02,1.980531018989442268e-02,1.330661644013437714e-02,1.223302534629850877e-02,1.202369904058556496e-02,1.272473164502879901e-02,1.138711611722944758e-02,1.089196050870178643e-02,1.630729233661696448e-02,1.532817045285282502e-02,8.434178885785202640e-03,1.157159020067055621e-02,1.625236239775274330e-02,2.077855740756045372e-02,1.829170238182294475e-02,1.011190085664261454e-02,1.995483492696579694e-02,2.945221530432831636e-02,3.124926842722030446e-02,2.585293056098357176e-02,1.534129243581081742e-02,2.076148379309572523e-02,2.534465034599058322e-02,2.442768316769957510e-02,1.763272512004255763e-02,7.187225374568663623e-03,1.607286608672516340e-02,2.145913260630390867e-02,1.709458229329727241e-02,1.621170486814769301e-02,1.720893080244100676e-02,2.499080408947549486e-02,2.861794178973040351e-02,2.400842318062577571e-02,3.060211796864698366e-02,4.220663246281705638e-02,4.566065148785652950e-02,4.591889860103402776e-02,4.073872684665655330e-02,4.602011717549960718e-02,5.468720625177386080e-02,5.048270838923532566e-02,4.639528595319571125e-02,4.248158834357364244e-02,4.646346689044855705e-02,5.176895504632399864e-02,4.353423754408360102e-02,3.621304062060667905e-02
3.933704919773423070e-01,4.198400461760601887e-01,4.293556971470163797e-01,4.065629664952569167e-01,3.993921443542766125e-01,3.997066455787371964e-01,4.122764440950509313e-01,4.298293954114235094e-01,4.556303237761691327e-01,5.008455356344969633e-01,5.529081820019491333e-01,5.952736660284847492e-01,6.472499087767719095e-01,7.131083585675890291e-01,7.751844588465768293e-01,8.357955175897050504e-01,8.943123466760978246e-01,9.374863618626754214e-01,9.612562300583101793e-01,9.551322514424660515e-01,9.352030263213931827e-01,8.774028606071728742e-01,8.013467707582232480e-01,7.050341075543000713e-01,5.759415975112249786e-01,4.356335881257371034e-01,2.750411598422957127e-01,1.528747956102397831e-01,6.814921173594398751e-02,1.309227111577518643e-01,2.032134587133177517e-01,2.078021180053387651e-01,1.843582725259642341e-01,1.369348145312991316e-01,1.117037539780233318e-01,8.804384598104995907e-02,5.973927782688039090e-02,5.409085208159275515e-02,6.543453314296691914e-02,8.340955352083029295e-02,9.208751747372816154e-02,7.252638039082190402e-02,4.940489913104205433e-02,2.394813835739893412e-02,3.843870754763686198e-02,4.330864304647362439e-02,1.957327621753803676e-02,2.080907993674890877e-02,3.631412396918654722e-02,3.913201822584504164e-02,3.332098302674656870e-02,1.008606472259337972e-02,1.321810179246564985e-02,2.907642176367728273e-02,1.991555262769936774e-02,2.017279779998642011e-02,3.738264872715103826e-02,4.329938456340606812e-02,4.350043913975641663e-02,2.468282779346179373e-02,1.618614894769393464e-02,2.385893101941765834e-02,2.659795903985652868e-02,2.622948962379842777e-02,1.027209116684856156e-02,7.160255206432397136e-03,2.163695866434759210e-02,2.278003715195237033e-02,1.965640154461151604e-02,1.493044205625311711e-02,1.618115244615819098e-02,2.460386668997956161e-02,2.036202785054741851e-02,1.374302999485811465e-02,1.201235343581537676e-02,1.184692815550321410e-02,1.333023422212064463e-02,1.132837369006210043e-02,1.012048139877053630e-02,1.597704739183576292e-02,1.551724969423838064e-02,9.214815582777952097e-03,1.146848339847711395e-02,1.535488078642995545e-02,2.031551146902643712e-02,1.790617162339100052e-02,9.514149819543533254e-03,1.921122567072533829e-02,2.871915028609186779e-02,3.099698742325840764e-02,2.589628970045082870e-02,1.554863385499494211e-02,2.050188718786384937e-02,2.489428788706365969e-02,2.465243352656588602e-02,1.768654998749384644e-02,6.544690432254526152e-03,1.531664039325786320e-02,2.083542991408926862e-02,1.711015467931479087e-02,1.567711959810246664e-02,1.548189419981377789e-02,2.371749588026105318e-02,2.756487468367044974e-02,2.269649800931622385e-02,2.909449366128834258e-02,4.055298701145598067e-02,4.461862833323382987e-02,4.520711822272409364e-02,3.987835041165437022e-02,4.521000031653053808e-02,5.403786781614731971e-02,5.049321572826154236e-02,4.663239968367680760e-02,4.230243712269982082e-02,4.645122725481919124e-02,5.215076547918354177e-02,4.460375375375724011e-02,3.736936109325363076e-02
3.938463759871302372e-01,4.193025584879278567e-01,4.282825570371462942e-01,4.058645446597703987e-01,3.975389379467133555e-01,3.960435104191597500e-01,4.079197144852499402e-01,4.247516772290340636e-01,4.497862750255529063e-01,4.946503677430555967e-01,5.465189132681481654e-01,5.886351535011522529e-01,6.405952575797015935e-01,7.067742761018164233e-01,7.694252079065554417e-01,8.307475444038242562e-01,8.904682046387540906e-01,9.350178996072487925e-01,9.603807855623106571e-01,9.560394511288043962e-01,9.379410242643281270e-01,8.819477899132845966e-01,8.076068972210166397e-01,7.129076439035547663e-01,5.851008429521887821e-01,4.458392700991269941e-01,2.854343955201943395e-01,1.575739830433865452e-01,6.142355928146950306e-02,1.239634542113863674e-01,1.981047885749190607e-01,2.050372153686135235e-01,1.829462929833986229e-01,1.360281682885139121e-01,1.094553585597771994e-01,8.484279877997134844e-02,5.773969709176449139e-02,5.204724322713727425e-02,6.241277523019510970e-02,8.136805604809664583e-02,9.124014144428306550e-02,7.296802631702090092e-02,4.958697865546737860e-02,2.285491072948621014e-02,3.794819798467875122e-02,4.357805310235032120e-02,2.073412302146870542e-02,2.117643313864779608e-02,3.492516622614750404e-02,3.860331132431615159e-02,3.345661715571614236e-02,1.037041935894884165e-02,1.308913756099654851e-02,2.826438059334713399e-02,1.906896304513147969e-02,1.918534671371557171e-02,3.606297257253983368e-02,4.237743295521049364e-02,4.328441331276223353e-02,2.511595990174156010e-02,1.664487979097452330e-02,2.336635118393784460e-02,2.639325244210892138e-02,2.670724551221057355e-02,1.078116670841743931e-02,7.470632186514265458e-03,2.143368906596868767e-02,2.291718301687188999e-02,2.026229386660107282e-02,1.493946012512107832e-02,1.610044417638728520e-02,2.504200957894906626e-02,2.093523300537523252e-02,1.424646029762219844e-02,1.179734987065892207e-02,1.164364625623755256e-02,1.390777115102707732e-02,1.126936212507246605e-02,9.370413995998791434e-03,1.563374692768746549e-02,1.568200984546933019e-02,9.981333000387249479e-03,1.135602788203667751e-02,1.444962537709841913e-02,1.983735150029472191e-02,1.753025298615018199e-02,8.976767413458127190e-03,1.848779667167321089e-02,2.796699815748546203e-02,3.072260720759946787e-02,2.594160087856291902e-02,1.580122361324146768e-02,2.025870860726388875e-02,2.443352842739565309e-02,2.486014116651718772e-02,1.782962920380848360e-02,6.167850321015618496e-03,1.466731517758976602e-02,2.020845121733548522e-02,1.715389812195000641e-02,1.516571862745150732e-02,1.375338087743203062e-02,2.242273913065996951e-02,2.648759816357627167e-02,2.139130236686487621e-02,2.757402420254469882e-02,3.884404570813206059e-02,4.350499626839504641e-02,4.442316304076940336e-02,3.897203108638545160e-02,4.433487032285685081e-02,5.328909773711728443e-02,5.041454256357235514e-02,4.679676615444022802e-02,4.207614533121074168e-02,4.636821454596493780e-02,5.242761602570033402e-02,4.559556524382421538e-02,3.848664760427801534e-02
3.943122221359768864e-01,4.187565084367503299e-01,4.272053309044936409e-01,4.051722317281606367e-01,3.956915308104299589e-01,3.923808259057339765e-01,4.035496770092388275e-01,4.196472463583955648e-01,4.439026941831140105e-01,4.884015328460660221e-01,5.400616915333855683e-01,5.819195648145304434e-01,6.338532532498152294e-01,7.003408969077464796e-01,7.635549650178015124e-01,8.255771068781596611e-01,8.864914367809151319e-01,9.324107559919033728e-01,9.593657969750685188e-01,9.568118374936809278e-01,9.405518068998413028e-01,8.863820916105272785e-01,8.137779962128994793e-01,7.207193146676904583e-01,5.942361895122882931e-01,4.560626807048919207e-01,2.958934875928965758e-01,1.623594291095821207e-01,5.477755308498218068e-02,1.169590661972821216e-01,1.928401947716304188e-01,2.021491522892524539e-01,1.814777895149267684e-01,1.351606105872478203e-01,1.072231156424997556e-01,8.165594645075416325e-02,5.587702702689875678e-02,5.010416878687886516e-02,5.933585643473592713e-02,7.924838040459664112e-02,9.031417300419905536e-02,7.336022101608083434e-02,4.977150548134097463e-02,2.183095579236541198e-02,3.746386317956532097e-02,4.382122848070961474e-02,2.192790408201882382e-02,2.155770469284740837e-02,3.348643388054441117e-02,3.802422270778124669e-02,3.366902327268661566e-02,1.112183519134176367e-02,1.330304315964236581e-02,2.742321252319249864e-02,1.834849561087218556e-02,1.837114845834238522e-02,3.476906687343613023e-02,4.142069481823491134e-02,4.301285547944622145e-02,2.553135683628801264e-02,1.709661122649934473e-02,2.283511203565596545e-02,2.614467730567279768e-02,2.716053618232944916e-02,1.146286255235949222e-02,7.981406804844916325e-03,2.122677246561596384e-02,2.301440033800779619e-02,2.084120587552125425e-02,1.491871375931649868e-02,1.598565995132662093e-02,2.543993211319474368e-02,2.151751752125214551e-02,1.480552056897522367e-02,1.158418991167582332e-02,1.141329254666833062e-02,1.445551824954176452e-02,1.121670781687443899e-02,8.655236523146763936e-03,1.528091984809956325e-02,1.582073706961915904e-02,1.073112814546288950e-02,1.123433645006348056e-02,1.353885212442966675e-02,1.934412335371606464e-02,1.716746608781417188e-02,8.511360984641528835e-03,1.779032111903380148e-02,2.719577720707564913e-02,3.042574593571751793e-02,2.598636384238201327e-02,1.609322116452920060e-02,2.002983764950824058e-02,2.396287543465207975e-02,2.504949634580787635e-02,1.807817164300049365e-02,6.102438611521117558e-03,1.414562200086728894e-02,1.957800976779608404e-02,1.721903700873646942e-02,1.467330343889312015e-02,1.202671903122660112e-02,2.110861797282944513e-02,2.538836638462876188e-02,2.009814666297621982e-02,2.604632883136798194e-02,3.708442308227755113e-02,4.232218735181927927e-02,4.356824498535551149e-02,3.802139834358365250e-02,4.339652704834442987e-02,5.244259098747318382e-02,5.024543702487024865e-02,4.688632382974481511e-02,4.180301306377931514e-02,4.621438936566933664e-02,5.259800605237398285e-02,4.650465305275788830e-02,3.955967511373040951e-02
3.947677209126727038e-01,4.182018705929095304e-01,4.261241746945605979e-01,4.044861692973971135e-01,3.938505944554715477e-01,3.887200042239839504e-01,3.991674207966380283e-01,4.145169213367576044e-01,4.379802160299235414e-01,4.820993807134227871e-01,5.335365621757549581e-01,5.751269267126103424e-01,6.270238304992397094e-01,6.938079576466535947e-01,7.575732050727617128e-01,8.202833826396624950e-01,8.823807879525855657e-01,9.296632450620432309e-01,9.582091500318242749e-01,9.574468734488041921e-01,9.430324294824081743e-01,8.907025048847836413e-01,8.198565744720536230e-01,7.284654869220146267e-01,6.033441230519394072e-01,4.663005174325981494e-01,3.064155279006885446e-01,1.672888438654279164e-01,4.838820108331227943e-02,1.100034892763699645e-01,1.874179234052097409e-01,1.991351288927367125e-01,1.799501930327612742e-01,1.343308952972110393e-01,1.050097125655812813e-01,7.849168730600618316e-02,5.417024569965345204e-02,4.827750550613534031e-02,5.620629137224347760e-02,7.705055546882175199e-02,8.930833836636303813e-02,7.370090184353557394e-02,4.996483496468123731e-02,2.089708580929314913e-02,3.699442440148130451e-02,4.403457205774859162e-02,2.314167662875962067e-02,2.194319979921147135e-02,3.199867645505826558e-02,3.739434609194187270e-02,3.389171632726021427e-02,1.207318801790778842e-02,1.366103625636794737e-02,2.655334856947503749e-02,1.777798396037359036e-02,1.776200107427316349e-02,3.351290528957516501e-02,4.043232737220629758e-02,4.268489925331771240e-02,2.592631820028864359e-02,1.753852300166759345e-02,2.226495897495213427e-02,2.585171849028808366e-02,2.757844063891747369e-02,1.218793325362562199e-02,8.545255403854642301e-03,2.098806722579739381e-02,2.307029142159732968e-02,2.139063543271916765e-02,1.486744161065504596e-02,1.583623088371965623e-02,2.579539987093891484e-02,2.210178782660883121e-02,1.540930665662900226e-02,1.136927960972910004e-02,1.115538551250435523e-02,1.497168478893757572e-02,1.117995936463810069e-02,7.993616224803143377e-03,1.492382168973551033e-02,1.593185057558416107e-02,1.146186612578021374e-02,1.110411300379582009e-02,1.262557939402978759e-02,1.883611513186262895e-02,1.682156593790177027e-02,8.130183093425766283e-03,1.712488403219687705e-02,2.640549753339386033e-02,3.010600829089496444e-02,2.602807562309190567e-02,1.641880540840580729e-02,1.981318009927091756e-02,2.348288669785967772e-02,2.521939737744416377e-02,1.843135546644276285e-02,6.349117736024739028e-03,1.375300820245307400e-02,1.894413498825912173e-02,1.729923245423860972e-02,1.419597972965769631e-02,1.030521790217419145e-02,1.977728000591889856e-02,2.426967512326071510e-02,1.882294366559090007e-02,2.451758558746654215e-02,3.527906683657385661e-02,4.107298871481313007e-02,4.264387669757861710e-02,3.702819822664255023e-02,4.239698396289000304e-02,5.150045216605106391e-02,4.998503522318768766e-02,4.689930103015600704e-02,4.148341865945497087e-02,4.598990674525559735e-02,5.266083592273168579e-02,4.732639794708687342e-02,4.058333436001957534e-02
