8.897711563833288206e-03,3.577396268490198872e-03,4.392202748226837691e-03,7.421260820154389551e-03,1.383219031571230641e-02,1.951867260720430500e-02,2.438009002739886799e-02,2.392531960954724646e-02,2.156874403959179246e-02,1.559139994555290912e-02,1.286245467865662281e-02,1.338190823890321804e-02,1.026769055404602206e-02,7.807518146997169048e-03,1.105802199981561172e-02,1.187053791128193925e-02,1.054238148400005702e-02,3.495772190883729424e-02,6.822073052645005742e-02,1.199231840024833490e-01,1.648407225466922976e-01,2.045330967181186455e-01,2.026335599337621418e-01,1.843240028082451243e-01,1.298902055995979909e-01,9.110999728493426875e-02,6.287894670317334400e-02,1.011785881853327629e-01,1.283306970613465603e-01,1.172902463431084452e-01,8.685193053408721275e-02,4.501486925934754940e-02,3.796016950445647853e-02,3.500596059744778832e-02,3.885095427762494391e-02,2.860256639374106000e-02,1.127922980974645564e-02,1.077250410566342638e-02,1.086410718615707025e-02,1.206372653438534358e-02,1.779052188259937217e-02,2.526270962358989625e-02,2.673645137720024809e-02,2.510818757525227346e-02,1.848516906520153089e-02,1.367897057793412627e-02,9.596389306482225323e-03,6.063834229561519684e-03,6.528882119405853002e-03,1.261555918126349221e-02,1.804532583215293778e-02,2.258341850236138953e-02,2.122258834475429165e-02,1.891911769848847458e-02,1.545442326184597037e-02,1.142351237567025557e-02,7.956384377619378848e-03,9.000481341289674753e-03,1.205878928893769353e-02,1.729462262466986699e-02,1.888964280440843385e-02,1.918331334733803725e-02,1.688095438425505496e-02,1.418092427106342965e-02,1.110335825586979130e-02,1.102175059542629711e-02,1.081628537135345507e-02,8.138187031190263765e-03,9.373616663923115683e-03,1.387031960740264802e-02,2.143157062652883624e-02,2.810297365392249586e-02,3.061120432241578454e-02,3.078697569580212540e-02,2.925926556152600236e-02,2.595621292774603905e-02,2.298450754507851829e-02,2.133952191862514836e-02,2.109829965267351337e-02,2.175309655299966990e-02,2.517629238899329186e-02,2.729687413907102775e-02,2.604963411698541301e-02,2.065741450441299989e-02,1.296242845268094808e-02,9.920347327643356389e-03,6.928730101327980860e-03,3.915384854307420864e-03,1.060414732570105767e-02,2.181146697460123116e-02,2.567426303867747714e-02,2.591458357716332206e-02,1.981557194586599027e-02,1.288786455794756550e-02,6.141283317264016259e-03,8.943982613387633715e-03,1.221718949351659200e-02,1.620772760827690964e-02,1.975748737739453642e-02,2.276563370188108143e-02,2.157681333299476048e-02,1.978266024955564056e-02,1.718139688004602372e-02,1.693570154129285521e-02,1.749876809770634783e-02,1.893788446036401632e-02,1.971807530684710139e-02,1.972797294428090681e-02,1.900535702859428022e-02,1.739027280950284846e-02,1.170138885102057699e-02,7.807354574071727511e-03,5.755402865012479788e-03,1.234639775382336685e-02,1.926899204535267168e-02,2.014633022073920518e-02,2.107517499369951017e-02,2.205043929286830753e-02,2.201834057672579989e-02
1.144044366904850910e-02,7.073500338437236495e-03,4.695618290897096703e-03,3.920643910726771472e-03,1.053045589989666693e-02,1.688470186262242684e-02,2.294788651745332392e-02,2.388361431945228847e-02,2.280474027647768145e-02,1.725694368495590825e-02,1.455152685337830418e-02,1.468848978174513119e-02,1.148896540012387009e-02,8.640767341907603510e-03,9.961936574221265384e-03,1.228488861036903558e-02,1.548745481573712141e-02,3.054605324333961938e-02,5.441826329549839109e-02,1.035080669971416567e-01,1.503593080655725445e-01,1.954865986003819778e-01,2.042865169940085712e-01,1.966431443709104609e-01,1.512250618170477567e-01,1.043868780357718462e-01,5.659166951428381415e-02,9.263860493838337040e-02,1.224207272455581363e-01,1.235308289067905546e-01,9.990155486110326166e-02,6.173470952372004522e-02,4.037678049459343665e-02,2.888875331593959012e-02,3.759000631354325606e-02,3.081123500619771874e-02,1.619386164844866666e-02,9.712270365066798250e-03,5.756849498008336473e-03,6.479521994511633007e-03,1.251998197967725546e-02,2.073391504954914463e-02,2.494253659024280728e-02,2.578415474832197740e-02,2.120432678185213415e-02,1.713817101385817221e-02,1.331259767029838691e-02,1.011044387681168423e-02,8.512397800590983804e-03,9.170128201775628804e-03,1.401062147853040889e-02,1.959422955233449531e-02,2.017844888174498419e-02,1.940303925489164985e-02,1.695272439206105264e-02,1.346953532273622439e-02,9.661087377240633323e-03,5.508479438807703868e-03,6.379261677058626831e-03,1.268073599821149637e-02,1.575431396826467573e-02,1.753824348048855369e-02,1.635157470649968234e-02,1.430601411141611823e-02,1.144504988871086933e-02,1.118463878766505146e-02,1.071058126484003732e-02,7.669109262244941383e-03,7.490885742185007107e-03,9.698702624237717090e-03,1.697631433143205471e-02,2.390500226248791840e-02,2.762795009129503238e-02,2.927448473470158075e-02,2.940453783820869485e-02,2.712666833889910284e-02,2.480074117662034103e-02,2.290319082461600431e-02,2.182739105242090250e-02,2.127611292691261591e-02,2.497103845813852113e-02,2.801854792831847893e-02,2.907130623764968280e-02,2.558132374730967898e-02,1.956759636826321119e-02,1.594282601634085250e-02,1.211154331837918131e-02,7.799703030481771465e-03,9.037677792355322884e-03,1.300588800868232239e-02,2.009754037554478678e-02,2.363095935223882144e-02,2.093746989613807369e-02,1.559793229709457302e-02,9.439723742651269164e-03,8.277165090618680485e-03,8.520156722863533871e-03,1.090603649343334543e-02,1.414987423973530951e-02,1.756236066872104984e-02,1.953893342856262427e-02,1.987788115326328750e-02,1.803332883110946028e-02,1.693704753453428857e-02,1.630360174906184123e-02,1.750431087952358106e-02,1.843779776314500782e-02,1.905889807651638124e-02,2.034556834957216426e-02,2.123120480259621176e-02,1.891554977099323478e-02,1.409809892863934065e-02,6.713015543672136085e-03,1.032848652303569072e-02,1.556544340111687581e-02,1.850558011034864059e-02,2.101349937273164561e-02,2.313188933116466089e-02,2.473388262105051527e-02
1.347097162103070428e-02,1.024580314425905560e-02,6.580027876250819745e-03,3.802264234343807892e-03,8.221067923409083877e-03,1.381733469973237330e-02,2.075460110321048976e-02,2.292204827709723447e-02,2.304273911540383538e-02,1.807090596783866160e-02,1.551474097306577982e-02,1.537424413108542075e-02,1.290665985892116077e-02,1.030011639157994013e-02,8.946404587084231738e-03,1.209400916689021971e-02,1.919398910852231424e-02,2.727929239755684868e-02,4.340547047488405030e-02,8.742176496577948319e-02,1.342527714001293115e-01,1.832514295610495059e-01,2.022915633931625101e-01,2.055753568360867700e-01,1.712320704078448552e-01,1.225923306705422600e-01,6.431802457278681939e-02,8.760737976628585333e-02,1.117420650158818807e-01,1.253336452053486205e-01,1.104103658204760030e-01,7.873093184037188719e-02,4.522900278990577005e-02,2.527494787423259850e-02,3.445619439428231762e-02,3.118314683857915243e-02,2.156527070742506047e-02,1.262356044103883808e-02,6.143639572677626025e-03,4.222587959918001725e-03,8.325605824179066819e-03,1.506257336001719932e-02,2.150016350790268788e-02,2.459811851886225045e-02,2.231869491951724710e-02,1.931724858533426237e-02,1.611895025402090842e-02,1.388143679234715711e-02,1.111942291089398904e-02,7.619830314126076892e-03,1.078031654915239876e-02,1.576224931336434737e-02,1.828836644995149308e-02,1.928060178847455439e-02,1.838327259315039944e-02,1.631138722347223041e-02,1.337482205216834058e-02,6.913126754741347885e-03,4.928511408461351551e-03,7.783982495854284769e-03,1.150823099014269824e-02,1.479100125711419952e-02,1.499104445518886081e-02,1.394200662974891605e-02,1.170713238957980795e-02,1.147176869052860329e-02,1.099423432233523519e-02,8.233572263902678989e-03,6.672990140715104670e-03,6.112474630231720663e-03,1.284912163760128581e-02,1.974840141269557786e-02,2.421276904509355593e-02,2.698666192533669822e-02,2.852593841355647447e-02,2.744235851040837879e-02,2.605072360925238598e-02,2.442094765152845806e-02,2.291100740075992931e-02,2.147755802677147816e-02,2.468445498508014396e-02,2.798382984306770419e-02,3.098153024203182879e-02,2.960752978684315015e-02,2.580480663490275495e-02,2.253093896924763390e-02,1.952018068903666609e-02,1.702674649400856555e-02,1.079957974265428368e-02,3.111037492627297986e-03,1.221813616923309899e-02,1.842114493617429821e-02,1.954199636120232744e-02,1.686559116086953566e-02,1.268484502721654861e-02,9.659941113477489572e-03,7.727209579082863766e-03,7.459593311557780049e-03,8.524540246735547513e-03,1.035268430543641836e-02,1.538728862072862892e-02,1.819790235811919593e-02,1.804319532497447587e-02,1.633174238617393637e-02,1.445007232041162562e-02,1.474175264128427601e-02,1.551430335087282050e-02,1.684899831769256368e-02,2.010793821545798360e-02,2.347781220956211834e-02,2.482795649900497448e-02,2.260413449056849350e-02,1.671229443957111468e-02,1.233962633770458069e-02,9.788718388348716104e-03,1.411087186732938245e-02,1.777207112629685185e-02,2.083759559438841391e-02,2.414798618582055661e-02
1.485449422442273841e-02,1.290235830271773201e-02,9.815167257741921197e-03,6.883543112788775495e-03,7.342307913528657408e-03,1.092206289029670589e-02,1.805627890087451934e-02,2.114354539859630150e-02,2.228608857884881861e-02,1.798038034396599871e-02,1.564198057253991456e-02,1.527088926457076043e-02,1.395206571997720940e-02,1.202534010895889988e-02,8.232510553768477429e-03,1.164767136683832367e-02,2.139179933252723098e-02,2.589916928484930353e-02,3.678475546522019107e-02,7.278295845711159340e-02,1.173190871256490908e-01,1.684303999359736403e-01,1.968148954912571913e-01,2.107545368066778557e-01,1.888018745541167609e-01,1.442315070205540117e-01,8.441877288457813600e-02,8.585103413508612946e-02,9.685979744725597973e-02,1.223062821467086753e-01,1.172926891321983828e-01,9.437987519298679517e-02,5.580637516432832013e-02,2.964222683107685732e-02,3.096444276452636063e-02,2.909334672776559688e-02,2.556508062492654845e-02,1.756812808852056818e-02,1.148396143821476742e-02,8.941990873279379720e-03,8.494205737528825670e-03,9.245522885360383039e-03,1.688442557430985813e-02,2.162320985829740277e-02,2.169231196480390922e-02,1.998397894166998451e-02,1.770207008126196274e-02,1.662867159328777766e-02,1.415986762953157230e-02,9.728774715456973976e-03,9.779448274245799294e-03,1.152248624069683591e-02,1.563786187577551751e-02,1.830548178941760265e-02,1.918963450998541209e-02,1.882163374388082927e-02,1.755801098526526063e-02,1.270219571642115797e-02,7.994571844554475629e-03,3.447154888339191720e-03,6.614867739885597203e-03,1.090555666793010386e-02,1.264979207808393166e-02,1.287724793268001100e-02,1.166472319655665127e-02,1.167318720959966555e-02,1.143091806804928841e-02,9.386376430598718235e-03,6.615484035912052446e-03,3.239299343528701317e-03,9.268146593131217428e-03,1.590374889760520771e-02,2.070283622669895698e-02,2.422366332725463950e-02,2.681092958674300558e-02,2.690427522407150968e-02,2.655049364615370139e-02,2.554524402766694680e-02,2.409672894840777721e-02,2.236527846865556460e-02,2.455259635461609288e-02,2.751786495286968198e-02,3.187150335648931965e-02,3.252896410182840037e-02,3.113299281478932104e-02,2.868834703929871305e-02,2.680782415035009442e-02,2.609447552047297961e-02,1.984430489495228253e-02,1.108545918483285625e-02,1.004062802141550588e-02,1.117148595276253389e-02,1.610979979994718245e-02,1.636148777222740797e-02,1.459934164497474554e-02,1.139565439175722894e-02,9.183513333599319095e-03,8.483073851516018116e-03,5.866926285542801815e-03,3.428316214577631534e-03,1.020585411115923664e-02,1.497812373847067120e-02,1.707670234008889371e-02,1.545807189824736916e-02,1.289592979041352151e-02,1.146549741388195459e-02,1.152849493305803386e-02,1.333733303454029580e-02,1.799102026749074129e-02,2.325515881318624550e-02,2.807606946181125454e-02,2.888816269994494076e-02,2.558594333257392314e-02,1.511460327618993627e-02,5.894590302058851788e-03,8.557689333834725756e-03,1.170233373824855136e-02,1.528096347849668656e-02,2.003458553415447471e-02
1.549160558650663003e-02,1.488416733830936513e-02,1.274700734481383144e-02,1.021729676562247585e-02,7.977982380574131019e-03,9.508373018431881540e-03,1.533203882126597632e-02,1.874880959589438761e-02,2.059943268378591416e-02,1.699142055396493309e-02,1.489054667452406437e-02,1.429681104546346934e-02,1.432101841053459029e-02,1.348605680225554992e-02,8.456048828104842374e-03,1.167625950141604023e-02,2.214056459688921313e-02,2.641865761763011536e-02,3.472853212147356677e-02,6.034111328254136708e-02,1.004564565945659932e-01,1.517405937469848420e-01,1.881630643182671814e-01,2.119942757761367480e-01,2.030797017888939515e-01,1.662262391706839093e-01,1.105443950837793343e-01,8.573271267404310170e-02,7.940896717881060218e-02,1.145148664682060224e-01,1.197105633524657153e-01,1.073301619161802500e-01,6.988424477486940289e-02,3.995562180513945877e-02,2.756780152908711035e-02,2.495228134448899612e-02,2.726573731543693868e-02,2.147313795149467103e-02,1.685631359377394792e-02,1.441685035868548251e-02,1.067679718347287407e-02,6.762917871447220175e-03,1.265307737707975153e-02,1.713232430046341889e-02,1.933976282870076419e-02,1.902159379405382600e-02,1.785885517946412746e-02,1.802904889467984301e-02,1.668978993334283706e-02,1.322786314560360152e-02,1.007729423616266287e-02,7.837973953786086384e-03,1.260892450794237271e-02,1.641466630476040578e-02,1.903138282079924401e-02,2.040355759875658523e-02,2.089386212569929041e-02,1.786642385182635878e-02,1.323807612740708281e-02,6.879015483478197190e-03,5.626497698098521100e-03,6.041680461045582581e-03,9.322377456110730529e-03,1.099593811914657999e-02,1.114373644164829390e-02,1.159028059458111146e-02,1.177289318805807908e-02,1.071073573840890594e-02,7.684622068796336143e-03,3.021878215881002288e-03,7.235514005136165112e-03,1.244965719379309728e-02,1.733293766074103098e-02,2.127589888944597663e-02,2.453211011269236866e-02,2.565272262924986335e-02,2.628586980155637673e-02,2.607291648132076950e-02,2.509841245993443826e-02,2.363781224632420519e-02,2.466063603840470964e-02,2.694884150883150586e-02,3.193029320480164635e-02,3.429892618268706728e-02,3.521599320608100048e-02,3.386995367409413593e-02,3.328127007825956024e-02,3.428228778361300244e-02,3.012690850114261784e-02,2.343124576508544277e-02,1.365284553845478449e-02,9.126586496058013143e-03,1.379157452607059769e-02,1.537879484836309624e-02,1.551395107071567962e-02,1.233808178077396706e-02,1.062073454150923996e-02,1.112703567458836473e-02,9.836444969810773098e-03,8.134819489986356775e-03,8.813421399777724916e-03,1.102482793722934368e-02,1.527997397822806330e-02,1.482904243752498560e-02,1.284323301623393684e-02,9.718518678727597337e-03,8.578965719022176029e-03,9.760094369985644960e-03,1.445555571405027565e-02,2.031144015585273702e-02,2.793400949097889219e-02,3.179600074412403804e-02,3.179845133418315178e-02,2.140832670521051334e-02,1.036509823028455672e-02,5.446194790747910415e-03,4.527303672200521691e-03,7.213361929359288910e-03,1.272710344513698633e-02
1.531955385301498988e-02,1.606186901286512508e-02,1.503266186156167715e-02,1.333840406745385489e-02,1.048514056929490505e-02,1.029865133516896097e-02,1.314932167952504935e-02,1.608411544022739226e-02,1.811846077077606046e-02,1.516966201145057008e-02,1.327777551132634619e-02,1.244280127040350674e-02,1.386407413207351932e-02,1.446646749057218378e-02,9.743785720605403072e-03,1.241632340812816489e-02,2.158222452173956529e-02,2.758393329014797654e-02,3.523061004746347313e-02,5.025481185213483137e-02,8.466061596871127248e-02,1.339924816358373794e-01,1.767760314912215636e-01,2.092814335243786961e-01,2.134103902313556067e-01,1.864124429227565216e-01,1.384376689949654016e-01,8.844972536686007691e-02,6.384381521499855883e-02,1.030053771555195230e-01,1.170751575520587451e-01,1.164002828145042634e-01,8.394302646313041294e-02,5.300002108200203149e-02,2.711797530076264298e-02,2.147697286872655986e-02,2.610695928636517019e-02,2.339685846636980343e-02,2.092228256244525395e-02,1.888386391050354135e-02,1.507206581920790892e-02,1.065218435909296400e-02,1.044728600104468004e-02,1.174955672295146039e-02,1.547862511597254166e-02,1.645253596520653699e-02,1.649781461891146328e-02,1.790226775670142323e-02,1.796025803598887832e-02,1.612478492050718748e-02,1.143849973702250680e-02,6.777169933806220271e-03,1.010685294524686986e-02,1.375135895468937788e-02,1.778369039645293428e-02,2.074917355301456739e-02,2.292661879044691209e-02,2.188540791001261643e-02,1.871514843926578436e-02,1.324321481682958282e-02,6.913101146979266920e-03,2.108477394383442664e-03,5.712162042380599693e-03,8.358394647162025251e-03,1.009565379319442117e-02,1.109450263662068066e-02,1.181183858005769964e-02,1.190050757203507670e-02,9.782850590177085207e-03,5.826588630122993447e-03,6.886333818835937981e-03,9.313828592427167777e-03,1.418433420314602240e-02,1.833837862414996328e-02,2.196916487288999922e-02,2.390740480392493372e-02,2.538129509687239715e-02,2.596960286045831012e-02,2.570983798456063021e-02,2.490875014729039896e-02,2.497624257398183001e-02,2.651156563083924972e-02,3.139599137994182609e-02,3.499716436923641649e-02,3.788541915863778697e-02,3.773793131461770922e-02,3.845575814928922642e-02,4.100185247519944065e-02,3.926800350408117535e-02,3.535045422047358027e-02,2.508912988952753664e-02,1.820197076203890554e-02,1.721960074060087387e-02,1.711471397738320577e-02,1.716268912646916334e-02,1.338908109423831393e-02,1.146908204128344738e-02,1.237507700591361330e-02,1.356888167427304503e-02,1.433732053941649820e-02,9.396868277751279502e-03,8.566700936943841965e-03,1.321691349061328812e-02,1.458119696211235272e-02,1.462284704187126125e-02,1.197333167775109161e-02,1.010056090494991857e-02,9.135815499465545567e-03,1.126068948563711640e-02,1.507666013957057252e-02,2.426709434957402198e-02,3.068241001789532435e-02,3.424957770922702066e-02,2.665492028639580846e-02,1.759111344677932384e-02,1.165028404049184459e-02,6.877344785309126400e-03,3.156948505813161887e-03,5.426683595489612336e-03
1.431711059827178029e-02,1.634370713120460866e-02,1.649513084354739534e-02,1.588287977081170518e-02,1.361953735081149718e-02,1.229556144292083368e-02,1.204141961826607141e-02,1.368772694127481752e-02,1.507181363101307327e-02,1.264730746163877061e-02,1.087900694118697741e-02,9.766912069657783871e-03,1.252740659556836333e-02,1.470831740494655052e-02,1.130938641433184080e-02,1.325026558729079824e-02,1.987975856241218364e-02,2.814631672813202451e-02,3.620006912767505941e-02,4.268955964342173448e-02,7.098207963177030622e-02,1.160654384093659092e-01,1.632185457958229002e-01,2.027774567334217626e-01,2.193329138089560315e-01,2.034024645237670070e-01,1.655793392128734054e-01,9.944413944432500818e-02,5.973594862274082817e-02,9.048853310165325126e-02,1.091079358457307941e-01,1.205975307662447427e-01,9.593415452316629566e-02,6.813927349784527909e-02,3.569990914849657804e-02,2.356099020703307512e-02,2.178966710352581507e-02,2.282576539232023319e-02,2.303815398250535357e-02,2.172515424193248446e-02,1.919777146242887880e-02,1.602058616502429270e-02,9.972646576846110750e-03,7.499529142593023764e-03,1.078248127821950300e-02,1.246942598288311964e-02,1.366196791848567522e-02,1.620781008223941971e-02,1.769234741311690590e-02,1.768442482276211952e-02,1.355254296646009673e-02,8.675355308747342842e-03,8.618268368102309160e-03,1.073964795087298599e-02,1.554464571466314046e-02,1.976748036648001694e-02,2.341528778645337455e-02,2.438834670551447842e-02,2.297246755902416365e-02,1.897395266599155930e-02,1.265465042719492172e-02,6.673926056124541810e-03,4.789071728883130714e-03,5.518783100432601667e-03,8.730677097416603485e-03,1.021241225482217609e-02,1.142382511263014856e-02,1.270680614336910062e-02,1.179083780116283592e-02,9.042411648168907634e-03,6.961700166988960339e-03,6.530315706136489637e-03,1.123347807799987899e-02,1.545137057428877872e-02,1.931485248729274823e-02,2.187941469903104119e-02,2.402765443865002154e-02,2.533099976523052119e-02,2.585986113197200065e-02,2.589437103498637427e-02,2.539830218841129458e-02,2.629180455123971208e-02,3.050709781249781247e-02,3.479895546940341144e-02,3.913334890166890456e-02,4.013134093337326208e-02,4.203078964228557785e-02,4.583948814826781237e-02,4.659193417371456508e-02,4.571769383921364671e-02,3.692429847722186742e-02,2.983074939422566615e-02,2.571193129947186434e-02,2.343724074303474292e-02,2.175345481691752167e-02,1.695927710200322014e-02,1.344930081143184443e-02,1.189720538092439717e-02,1.476882991854751824e-02,1.832179020137022357e-02,1.242941320219304036e-02,9.807990227609100775e-03,1.154783928581589944e-02,1.434952879418376244e-02,1.700814156200057201e-02,1.622608462307437854e-02,1.484761587759318019e-02,1.277193333008300007e-02,1.032902768003975819e-02,9.431111564488482701e-03,1.783894467447832283e-02,2.548093381822006884e-02,3.233692520712851820e-02,2.885610913851328896e-02,2.358636612165544363e-02,1.928110950415031291e-02,1.576444741108689457e-02,1.295849396350780454e-02,7.826428310151936976e-03
1.250858941839187201e-02,1.568343644744340376e-02,1.701510103031156351e-02,1.758645209021439740e-02,1.646619277991720823e-02,1.480824901101445920e-02,1.253794238647764313e-02,1.214513467179106909e-02,1.183917363661860303e-02,9.644241818768790192e-03,7.831015594996331916e-03,6.399494965301302796e-03,1.033762089232186099e-02,1.404916529707707536e-02,1.251113691483981064e-02,1.371889994926215640e-02,1.733760178855645734e-02,2.754475132566402279e-02,3.652385305966400486e-02,3.789597545567808395e-02,6.028828439601319200e-02,9.886855308887304572e-02,1.481707539935540607e-01,1.928211617708724124e-01,2.205931482640227093e-01,2.162302103953202548e-01,1.902111278479779177e-01,1.205813856420430846e-01,7.105965446092968318e-02,7.857512216820589090e-02,9.597217345942268829e-02,1.191759285061511492e-01,1.044493563095142824e-01,8.327236597911892579e-02,5.044049834743369320e-02,2.930929845826414637e-02,1.427536691115101342e-02,1.947140778256269827e-02,2.276202110251595440e-02,2.252406488273149543e-02,2.181339883983404726e-02,2.065070803829803514e-02,1.345983258220264517e-02,8.368362744905634421e-03,6.657291785334707931e-03,7.561773442344041536e-03,9.563390783253696015e-03,1.307695300903925946e-02,1.585572345015535262e-02,1.760119294407994778e-02,1.498621039305314713e-02,1.109034321522635834e-02,8.040258600012489126e-03,8.314838843847028454e-03,1.268502072564002721e-02,1.758274987919680732e-02,2.232030407480181319e-02,2.516705418908168901e-02,2.560613707825402235e-02,2.344233648082335447e-02,1.801652395514067098e-02,1.204140719295384784e-02,6.776170368813973915e-03,5.459013980170849406e-03,7.890035220163991309e-03,9.243731405683781530e-03,1.064562315911954556e-02,1.295116712127718575e-02,1.332816557399739074e-02,1.209804276885305917e-02,7.757140190380930680e-03,4.984546880313207168e-03,8.617775114917462093e-03,1.251459382104000775e-02,1.660392242209149730e-02,1.967830625885648096e-02,2.238186684160941436e-02,2.429979279133165013e-02,2.558563971268187215e-02,2.646803193507117624e-02,2.580475930796949369e-02,2.624979020067950281e-02,2.946973225972304711e-02,3.393609989414664990e-02,3.909492618155936683e-02,4.105816220328591115e-02,4.389832804069498939e-02,4.859446714810670281e-02,5.165647826923178143e-02,5.376468360765117999e-02,4.740846678213753163e-02,4.154647268536260096e-02,3.654936836388054250e-02,3.292106522404567720e-02,2.973600121545181066e-02,2.432695070587839042e-02,1.834426647398411034e-02,1.148702591133794922e-02,1.399411947650714728e-02,1.896562964549104724e-02,1.502903455727839198e-02,1.195970468472803971e-02,1.004672843306054011e-02,1.372131139076834469e-02,1.857591133276208228e-02,1.992939691297092308e-02,1.972244748928208766e-02,1.769132756807901413e-02,1.325006386732264022e-02,9.266712833762208446e-03,1.121260388280337188e-02,1.678719570184821624e-02,2.608598041642386234e-02,2.737031702842201639e-02,2.679736876904454529e-02,2.485598286397952203e-02,2.311928730655896450e-02,2.156706576615123952e-02,1.794284902260766257e-02
9.966551109506324724e-03,1.408698268576802186e-02,1.652732448065466486e-02,1.828746604456531200e-02,1.859689197457312093e-02,1.738498534847740876e-02,1.444044997793048762e-02,1.173335715283486264e-02,9.095124319347731856e-03,6.531496974956095374e-03,4.385115631089393610e-03,2.655980287747705063e-03,7.458375257343941023e-03,1.244379337208378032e-02,1.302060012601895939e-02,1.369754424247100755e-02,1.446241384796229448e-02,2.575707091052001005e-02,3.568206192674437671e-02,3.554245482690986807e-02,5.273541973493105217e-02,8.327645733865850219e-02,1.324173218649792871e-01,1.799308991718417405e-01,2.171615010980011418e-01,2.242278988726365552e-01,2.109662460234184855e-01,1.456645222903181214e-01,9.001196421906217104e-02,6.655750371543692201e-02,7.868194486688613598e-02,1.117135756507001837e-01,1.084056227131278416e-01,9.604482934485396306e-02,6.636163983772688790e-02,3.530465926006343819e-02,3.814966820472194022e-03,1.327606300797283534e-02,1.983462385472237188e-02,2.101811925563680170e-02,2.241149256083872776e-02,2.362261116144713513e-02,1.806410950634073503e-02,1.214412031639140396e-02,5.642074926270857285e-03,4.136890250234800601e-03,4.776303682440591857e-03,8.935796540628579421e-03,1.267661348920525247e-02,1.582866743989092689e-02,1.502204260891294718e-02,1.276796149440955971e-02,8.827120072948644453e-03,7.641442992149248201e-03,9.849808939701259342e-03,1.457129907078478365e-02,1.981776685907709473e-02,2.421428575617380966e-02,2.641049910671972381e-02,2.622800375829152653e-02,2.217560265790966684e-02,1.714327165224430183e-02,1.133706231177141269e-02,8.460231534848346516e-03,8.364456356232067430e-03,8.798488717587562430e-03,9.781323167114448769e-03,1.259130607714673694e-02,1.412568767436707569e-02,1.459706817757741755e-02,9.886774215425784065e-03,5.941218999109153763e-03,6.609857931755794280e-03,9.392196736815298236e-03,1.371824893183922270e-02,1.726194868445202896e-02,2.047589706549190341e-02,2.296323593152836684e-02,2.494859351841511447e-02,2.661353752286581276e-02,2.608927955043221364e-02,2.629042366309011086e-02,2.843944121517991142e-02,3.265269214514543439e-02,3.801273939615323200e-02,4.067416188746249273e-02,4.413741448389459088e-02,4.929176213015953878e-02,5.427367163529837890e-02,5.901193839311263956e-02,5.565963547629967229e-02,5.192739036879453346e-02,4.753024642757819329e-02,4.364233624662225419e-02,3.987628241998694006e-02,3.449733434764846313e-02,2.699656799376536076e-02,1.626089835818222973e-02,1.460089307784844838e-02,1.595231080214265518e-02,1.542712016799209496e-02,1.321469770313283242e-02,8.752632797328543240e-03,1.249860896849905659e-02,1.834111197265724663e-02,2.178394865499979835e-02,2.301285145303044039e-02,2.165363435813285123e-02,1.843157621874636984e-02,1.417837692167840495e-02,6.619114630033954422e-03,7.292696557738071426e-03,1.641577650003780281e-02,2.223851144322536860e-02,2.660991046316727587e-02,2.732850567656571264e-02,2.755999743162121374e-02,2.735249471187386344e-02,2.589600677554389219e-02
6.816285387977230256e-03,1.161838162633361399e-02,1.502740787395997341e-02,1.790061367071995799e-02,1.977114400845242023e-02,1.953753240082442555e-02,1.690753691098036138e-02,1.253749062801416334e-02,7.909867221916885155e-03,4.073698228883307002e-03,2.318572842965445791e-03,2.644491064163487573e-03,6.133307868142540663e-03,9.952233763840011641e-03,1.267714825160097016e-02,1.328305329767947261e-02,1.202836468764652972e-02,2.314297072509188466e-02,3.338692419046008358e-02,3.441376143275662325e-02,4.757284891266633231e-02,7.007516358706072923e-02,1.168273849534346709e-01,1.648057432363362884e-01,2.092490199408544582e-01,2.270030311023877867e-01,2.267707980936482515e-01,1.700173314990811035e-01,1.115685061502005998e-01,5.765182016161736478e-02,6.109331530314029285e-02,9.824013337679012026e-02,1.070235910901982668e-01,1.048931477521076738e-01,8.099653703853219866e-02,4.745965567727648132e-02,9.273211934498029260e-03,1.164483433803422015e-02,1.420536018583266544e-02,1.711570722670954434e-02,2.073374211557827904e-02,2.439341918214184973e-02,2.141254929440705376e-02,1.708000171534224815e-02,1.057102395532196100e-02,6.432352374323529326e-03,3.585382657205045398e-03,5.975294547794227432e-03,8.915916345644928770e-03,1.263097395058206812e-02,1.348601675485494242e-02,1.313185647828173964e-02,1.014919333250589514e-02,8.283102075422902819e-03,7.792497927599365166e-03,1.146665036829706136e-02,1.632455245806804442e-02,2.176103291049108837e-02,2.540279893111756920e-02,2.710433313358533158e-02,2.472982782832091123e-02,2.111168899932134094e-02,1.563718614151653544e-02,1.201893948934796424e-02,1.016296138683396404e-02,9.410781507453282527e-03,9.429983839074430885e-03,1.177990063453420756e-02,1.401298391090750883e-02,1.614870592137536420e-02,1.230099294918341607e-02,8.058310649282607666e-03,4.954658443355170958e-03,6.153120281204861250e-03,1.049357552181324343e-02,1.447203127704545234e-02,1.819079379568344992e-02,2.127812959288191350e-02,2.394016715627054342e-02,2.633073776190815105e-02,2.615892139378318479e-02,2.630992776400788852e-02,2.750534382754888513e-02,3.116078624708439049e-02,3.618290997550592525e-02,3.924047711732364663e-02,4.298318427433410471e-02,4.816181128876213802e-02,5.451506092693415850e-02,6.129506811438820840e-02,6.113084371420717672e-02,6.001264468089546195e-02,5.722499003960504482e-02,5.404780277342742523e-02,5.063804401454984755e-02,4.591875155232558181e-02,3.848248153782668490e-02,2.690393427149826572e-02,1.799926582651289672e-02,1.095923988075598113e-02,1.396751824014882785e-02,1.352010089803186953e-02,8.465089287235234156e-03,1.094443337158586271e-02,1.571302346600516112e-02,2.103512631394852117e-02,2.378174090806606591e-02,2.351757345897837956e-02,2.238168355766038259e-02,2.043365199582796582e-02,1.506116044236547116e-02,1.040854803183697587e-02,6.494758952214293307e-03,1.429042588796712414e-02,2.309764420404682161e-02,2.624510883446739412e-02,2.823620621985110934e-02,2.918514547081901833e-02,3.020747419687618701e-02
3.344974554411073164e-03,8.425871841670434445e-03,1.258249716793885184e-02,1.642023739855679940e-02,1.985292050260157107e-02,2.088425708744412815e-02,1.918072680319525200e-02,1.436428165068675059e-02,9.062582121085892631e-03,5.044317733348149119e-03,4.226583928575018863e-03,6.609380706766749061e-03,6.446960061692250110e-03,6.808267397824811946e-03,1.145239488366943913e-02,1.270292424399758514e-02,1.097370890875027337e-02,2.029867226876428191e-02,2.956618920298496531e-02,3.313998946551813957e-02,4.379823280443106981e-02,5.991231161595897414e-02,1.023014316513692901e-01,1.483251260589295850e-01,1.973183865875857146e-01,2.244464536771662855e-01,2.368392817099778114e-01,1.912391844738727809e-01,1.359454793515015858e-01,6.541665671036993313e-02,5.483553223086134326e-02,7.948140564014455345e-02,9.990185920072816583e-02,1.086647715919911023e-01,9.268869118320470502e-02,6.193721827127797452e-02,2.382534169848376723e-02,1.205232025812169594e-02,6.100166966203745232e-03,1.092739913436746244e-02,1.672393365778025720e-02,2.270479112625182344e-02,2.272999590754804650e-02,2.078409922346810546e-02,1.566439509513809988e-02,1.174568061642332698e-02,8.428159833193419812e-03,7.071332549391684541e-03,7.055594376997426434e-03,8.925762767519924631e-03,1.058259421902408431e-02,1.188831360804953191e-02,1.074758163481359316e-02,9.299966924727717799e-03,7.474308263449908410e-03,9.332481949210635550e-03,1.255773938913635340e-02,1.832160359178027637e-02,2.286486635282133917e-02,2.608855998780501562e-02,2.547243036733198157e-02,2.350080794807701129e-02,1.887489668383704119e-02,1.526352398439565286e-02,1.261532080849710885e-02,1.104309901956936069e-02,1.007658104202847557e-02,1.080180339892895455e-02,1.300518870430422171e-02,1.644037646674176290e-02,1.404645682188099959e-02,1.040845985167587924e-02,5.063535756070533522e-03,4.330162876565585989e-03,6.964776840280231460e-03,1.115524707161920370e-02,1.532445313719599592e-02,1.907267914390645830e-02,2.243341812160624948e-02,2.554682495312894305e-02,2.589341188173727160e-02,2.618820523491353219e-02,2.667073018274284876e-02,2.959995051229753413e-02,3.388844605392203613e-02,3.706079529926600835e-02,4.076825177277407231e-02,4.558607523559758679e-02,5.267872852282444451e-02,6.076090395385685961e-02,6.360106198770393293e-02,6.520641877093626138e-02,6.465087336559276199e-02,6.292761539951287342e-02,6.065498954328447934e-02,5.715441749464253429e-02,5.080711439642930649e-02,4.011971314067200312e-02,2.627967703092811552e-02,1.275189005228695958e-02,1.460868681847803281e-02,1.411651156154799386e-02,1.049237360712317393e-02,9.680731783608566635e-03,1.049276616534628240e-02,1.732258491807832368e-02,2.152772506263279581e-02,2.266457894692279484e-02,2.374141558488933323e-02,2.445044882948399501e-02,2.314730446402176595e-02,1.825758301564672087e-02,9.686900876913106390e-03,1.241870198401697802e-02,1.728516458472322340e-02,2.190078712248037102e-02,2.492363919077500087e-02,2.651103145325793553e-02,2.991667057530873058e-02
3.848052766226564211e-03,5.463667943861438836e-03,9.360264975001843235e-03,1.394235204388067154e-02,1.880304959687081542e-02,2.119275141393959019e-02,2.076826364287564369e-02,1.642681185841183070e-02,1.145526919687268538e-02,7.993052394681924785e-03,7.773302732536320828e-03,1.079602021043610770e-02,7.136451627144481565e-03,4.197917075621445532e-03,9.684756847657417442e-03,1.201393263156814821e-02,1.157052540151529314e-02,1.759780498596868678e-02,2.443247564778486258e-02,3.090256450485277459e-02,4.071800507414963244e-02,5.310975098504862324e-02,8.965091419819143370e-02,1.315418028784993143e-01,1.820865410395335060e-01,2.167456817348631659e-01,2.406993110946084591e-01,2.078577794040096793e-01,1.615915946309500750e-01,9.057681938369241403e-02,6.138449637369119971e-02,5.676825354434821697e-02,8.721579327951148319e-02,1.065616382761242070e-01,1.001144926864397516e-01,7.445828617220488777e-02,3.911251123801296609e-02,1.956952016550393345e-02,6.457790630128180248e-03,5.255804682035800438e-03,1.056812433648074770e-02,1.854451848778521095e-02,2.165295930733222157e-02,2.240664993733612262e-02,1.936879365197383823e-02,1.642254906221142854e-02,1.355737967629954549e-02,1.129958092439421226e-02,8.975194384839478567e-03,6.557168768902835003e-03,7.334381043141205946e-03,9.042932712981264359e-03,1.006907050149094714e-02,1.001978092567286371e-02,8.645689524233531389e-03,8.639285951966632279e-03,9.641368845574172300e-03,1.475852667841709431e-02,1.938902962893121473e-02,2.349341919314376637e-02,2.444837211958669418e-02,2.410136937242479682e-02,2.064106002017834091e-02,1.756825532324820388e-02,1.486333479275748354e-02,1.311196783156789482e-02,1.153078363141520415e-02,9.994264961483739079e-03,1.142420031902659228e-02,1.532618069946467890e-02,1.465474586195632603e-02,1.259180768781939519e-02,7.827983055301506593e-03,5.001081244668409767e-03,3.588785989344617233e-03,7.418688323045576072e-03,1.172755445550110846e-02,1.613553312387135119e-02,2.021482090571691953e-02,2.408430599403602393e-02,2.510605475659206942e-02,2.575243363689908721e-02,2.583588977418494609e-02,2.800503842603672272e-02,3.133290514153636713e-02,3.440705595063611733e-02,3.784243608174171075e-02,4.201409997730087831e-02,4.921819112216392622e-02,5.781562615941081285e-02,6.316385207407088087e-02,6.726877244595864946e-02,6.919790811799485242e-02,6.940009786823103655e-02,6.881879638201734983e-02,6.695028752122103577e-02,6.239749126213809532e-02,5.375225683845340219e-02,3.948766951156183758e-02,2.428472688064481702e-02,2.028962987536222715e-02,1.715965603786333629e-02,1.518317975740915426e-02,9.101533893219337229e-03,3.526507035437284956e-03,1.090186730103710581e-02,1.614436967789630029e-02,1.889353114256511756e-02,2.192660281743933834e-02,2.499423800911011392e-02,2.786751227537173983e-02,2.661883715154815880e-02,2.113974028526815346e-02,1.582652829894779650e-02,1.217211687692669464e-02,1.583764094777723175e-02,1.824415067224331374e-02,1.951599314626430506e-02,2.476451631796598718e-02
5.702138810493313781e-03,2.882572227662714981e-03,5.901651132929680230e-03,1.073549408721950066e-02,1.670959792037038025e-02,2.036259627367602992e-02,2.137211338604675520e-02,1.800213889310194049e-02,1.382564739118517273e-02,1.078408320801752321e-02,1.103954794300495562e-02,1.459204159614769895e-02,1.016299852884327420e-02,5.883832497215485229e-03,8.602043651553361800e-03,1.094111377329787249e-02,1.294727957374098605e-02,1.496153907770881447e-02,1.852084977807006913e-02,2.752926194630504059e-02,3.791943603577840882e-02,4.937372562781516816e-02,7.943483753854775620e-02,1.156474570624520942e-01,1.645125104030203123e-01,2.043933899341449645e-01,2.382197175502089315e-01,2.188969784942954855e-01,1.842828269069425318e-01,1.196874129573357592e-01,7.198730262849203920e-02,3.421536040669607981e-02,7.069326747164626779e-02,9.820324720553361142e-02,1.022533912707549592e-01,8.381435957295610417e-02,5.396825666815657785e-02,3.299596860796663589e-02,1.626441342417384375e-02,7.386067270745287801e-03,7.747530615189401025e-03,1.222470353613902376e-02,1.811038422396744202e-02,2.154987417060684474e-02,2.105058241533173252e-02,1.957499458748118704e-02,1.773595385751912043e-02,1.593146875391209666e-02,1.306386586776727213e-02,8.701253599928739438e-03,6.251819133880079371e-03,4.921047329052034326e-03,8.020425883266523587e-03,9.748590245479415994e-03,9.787577704501771586e-03,9.050646796702742705e-03,8.710333599152811357e-03,1.217088985347424684e-02,1.591924530912380148e-02,1.997873503647936214e-02,2.201807917273771592e-02,2.298286541853355666e-02,2.077188246247350586e-02,1.853040092063645838e-02,1.625996502521355122e-02,1.487477215373991281e-02,1.321639237793737626e-02,9.888674820733965240e-03,9.972309263440282123e-03,1.289873703940470559e-02,1.390661866827864329e-02,1.373696766738825674e-02,1.048795962641157695e-02,7.141352738189173099e-03,3.723465792989689993e-03,4.993647573043769917e-03,7.509922575370893763e-03,1.236865560812523690e-02,1.708388389419770656e-02,2.170751340579229680e-02,2.354901612968716626e-02,2.475888409942985161e-02,2.479682874686847671e-02,2.629140089889485388e-02,2.859521055347007124e-02,3.145235223686194959e-02,3.448745480617045056e-02,3.786726444874728703e-02,4.464394431659102214e-02,5.302907412686819894e-02,6.017294655000275660e-02,6.629233886751463578e-02,7.061889100018671483e-02,7.293431087926027789e-02,7.434058642257658500e-02,7.430766007013930863e-02,7.197811726987224379e-02,6.614717562291319575e-02,5.342943554876343482e-02,3.880889483724106470e-02,2.975915418255613981e-02,2.383975873693866543e-02,2.209415690341067634e-02,1.569609087634764658e-02,8.626643507241547187e-03,6.823346428331159702e-03,7.937769533348850229e-03,1.246304862802896998e-02,1.690093105539627882e-02,2.163515471948362218e-02,2.817766588420751728e-02,3.083570069153374754e-02,2.950703607942518208e-02,2.111462689951876942e-02,1.289416173177783745e-02,1.160768697442000723e-02,1.042385681715263940e-02,9.332533521695135503e-03,1.536136380510960166e-02
8.715739326993017858e-03,4.786206473262887527e-03,5.260864727819187375e-03,7.555838761738515631e-03,1.391830333892418205e-02,1.843097871507137775e-02,2.083694972336909423e-02,1.868108050884938198e-02,1.555978742188601771e-02,1.294182757252753529e-02,1.365616994316547553e-02,1.770281453380005351e-02,1.404398889447977181e-02,9.552906251452657205e-03,7.606182860317051500e-03,9.264799800375112318e-03,1.408908142148141383e-02,1.253707139661096835e-02,1.294534796350632622e-02,2.343959135816558320e-02,3.514394458272349780e-02,4.778022146938780412e-02,7.188353905567111679e-02,1.018563664783619510e-01,1.457554160328830561e-01,1.881871513069508506e-01,2.296300443485382869e-01,2.237806615381511266e-01,2.019296416962382545e-01,1.474129858732342868e-01,9.023646409690240511e-02,3.149692830675995814e-02,5.884926200964149534e-02,8.374710205190565027e-02,9.846577742181500392e-02,8.896164515296933750e-02,6.711443753575986604e-02,4.615569744186877321e-02,2.877866333591342848e-02,1.803441809650480065e-02,1.070468570473980148e-02,5.387081098087616315e-03,1.270608745224994368e-02,1.808050031874721894e-02,2.032378807798736892e-02,2.068340024389546394e-02,2.030565491157542909e-02,1.952518061978359559e-02,1.744944507843940520e-02,1.355224840491225588e-02,7.831971842504057910e-03,2.517221439375620564e-03,5.672701421053830302e-03,8.193402316694083087e-03,9.932128975910635427e-03,9.699528427258853960e-03,9.307225637627690798e-03,1.117824838841677618e-02,1.358449625199629161e-02,1.656936585913302076e-02,1.892170036404942912e-02,2.057005990840892612e-02,1.941473209797084029e-02,1.802640646354710524e-02,1.641688036331413747e-02,1.574740532681380770e-02,1.458087278890077970e-02,1.082049768710728263e-02,9.249522588337425258e-03,9.503047492087308978e-03,1.183609365610094506e-02,1.352406655869746628e-02,1.225182575647668776e-02,1.020079450624689597e-02,7.580983715336419779e-03,5.028381735240008803e-03,4.226273876433785798e-03,8.233045015009753456e-03,1.298981200977917042e-02,1.822529976382097558e-02,2.097379430170605297e-02,2.292300442599641552e-02,2.327368268415002175e-02,2.427055574707780161e-02,2.562642592376906600e-02,2.823626594040886534e-02,3.085420881264510501e-02,3.345519354765091880e-02,3.942010105774889500e-02,4.701302927581586105e-02,5.514704802593777683e-02,6.263636157404997573e-02,6.899744101864493939e-02,7.335613723833804556e-02,7.679676531248631755e-02,7.856941324833940921e-02,7.859330939183467590e-02,7.595107575353811369e-02,6.591424961544747885e-02,5.331822739598987559e-02,4.110613492480930803e-02,3.300322149886567719e-02,3.037921346657066618e-02,2.519638196730815405e-02,1.893208985422249052e-02,1.018303636328770322e-02,5.644243968148020263e-03,6.027306093445532198e-03,9.551667314714617010e-03,1.456218831167042579e-02,2.370870999203478213e-02,2.992849461486547791e-02,3.314452278391154944e-02,2.608927797565639001e-02,1.791166676916130032e-02,1.364091227404691173e-02,9.402757136873480734e-03,5.193981667967647632e-03,6.933325875427434268e-03
1.201502723076549109e-02,8.841880296834280992e-03,7.157935438360414626e-03,6.642985617913089308e-03,1.143605425785244531e-02,1.563105891795092683e-02,1.914493515656387132e-02,1.826022799999650961e-02,1.632149586482588982e-02,1.420101489549824292e-02,1.538935536245988542e-02,1.988651726571101855e-02,1.754432525142751026e-02,1.336567605283174934e-02,6.713719827055816131e-03,7.363409324619575591e-03,1.442429994511592282e-02,1.159852505534718359e-02,1.040048923346461457e-02,1.985843821837144849e-02,3.235903031751821701e-02,4.720280734372395148e-02,6.692936780985647705e-02,9.112950181439635755e-02,1.270811472896491434e-01,1.692188330147343378e-01,2.155253719516620758e-01,2.223235394679132226e-01,2.134214374466020248e-01,1.713992709397685332e-01,1.176885100562149594e-01,5.710919371417659540e-02,5.606498838898856668e-02,6.421042933339192460e-02,8.864596308310042361e-02,8.911684744381587198e-02,7.732075443868012543e-02,5.791977679978795035e-02,4.107387305388169457e-02,2.895958762831873229e-02,1.837356093542041879e-02,8.879956751856927025e-03,9.774257729381286008e-03,1.218759833565905351e-02,1.704685020857395900e-02,1.942614636447870594e-02,2.081231429403430574e-02,2.137759940147630766e-02,2.064448422233136626e-02,1.808549364017356109e-02,1.278811899270889188e-02,7.069724072433311406e-03,5.189147374728701051e-03,5.579450592950457519e-03,8.767214577168645079e-03,9.530232276423019483e-03,9.844592024556335363e-03,1.134544524416333452e-02,1.287343318606978468e-02,1.443075596289452624e-02,1.625752037003909412e-02,1.772442306958432051e-02,1.713769094383524663e-02,1.631084292923651660e-02,1.525603679231211582e-02,1.541687148624114150e-02,1.511390087268563685e-02,1.216677897354615304e-02,9.077211105334650684e-03,5.868938262896541969e-03,8.854365482832152190e-03,1.193867831772175113e-02,1.282794300302132935e-02,1.253400907732079954e-02,1.137594133459768862e-02,8.546127650337690534e-03,6.162654721569067566e-03,5.398706227589147692e-03,8.327869958297779568e-03,1.361433936433972640e-02,1.722510831283708202e-02,1.999361684259116922e-02,2.097198978197752778e-02,2.170204672250441308e-02,2.229415033033160451e-02,2.468131244473862826e-02,2.695096902211584211e-02,2.893560899215385715e-02,3.388789770007995250e-02,4.030531928439744227e-02,4.865446753473236935e-02,5.682240539025969206e-02,6.467322505487352324e-02,7.080896989164836564e-02,7.612841787062141208e-02,7.947251427143663116e-02,8.169349496356709261e-02,8.220218449327638954e-02,7.549587541548728742e-02,6.588726170582016872e-02,5.225769488784094002e-02,4.283451633843111950e-02,3.901985548044649421e-02,3.505440587774390909e-02,3.056166238195347565e-02,2.242000668220369558e-02,1.533151104215238134e-02,9.474174345129624669e-03,6.069482484307371292e-03,5.152324564653116591e-03,1.502359831893462089e-02,2.370671164950030607e-02,3.117039717677896893e-02,2.754070194191908516e-02,2.232814114631812702e-02,1.966714529436331543e-02,1.790264616441548592e-02,1.694610087035037377e-02,1.194270254937104987e-02
1.475284166380779957e-02,1.268418655714734743e-02,1.079215716521043228e-02,9.297138158670415278e-03,1.026740696478329468e-02,1.259236094636773801e-02,1.646015082223918624e-02,1.668691121213425332e-02,1.592610675956433047e-02,1.439155313101997749e-02,1.606657017577962573e-02,2.095115789384345562e-02,2.028758241519619532e-02,1.729114223350765658e-02,8.654234721769191521e-03,7.852222511311127834e-03,1.392963056539207010e-02,1.288961854496343748e-02,1.250834873087095823e-02,1.798750190425766129e-02,2.990127348051400263e-02,4.677044083829136334e-02,6.417270487246543031e-02,8.377863435143095838e-02,1.097253565066156344e-01,1.488493656853474012e-01,1.968537204669034979e-01,2.147369535131364859e-01,2.181647119061091711e-01,1.901277508317587850e-01,1.447674584349810112e-01,8.922747649821999305e-02,5.587901385490218198e-02,4.325233016529850261e-02,7.376137170260337050e-02,8.387380700247432097e-02,8.348400126325922210e-02,6.718660306367726931e-02,5.210389401859347874e-02,3.927060933369055234e-02,2.841814281053335611e-02,1.846132943070950480e-02,9.135344780992728925e-03,5.663929526944336962e-03,1.161936329981992297e-02,1.570428176901717335e-02,1.899378083196115799e-02,2.106158971904582150e-02,2.193942623340729148e-02,2.114386409862676133e-02,1.711511659475915478e-02,1.199031058034227652e-02,6.230720262096147224e-03,4.188438526066879351e-03,6.725449971029774481e-03,8.058459835722469114e-03,9.235180902644198053e-03,1.142216297385859232e-02,1.304605807103773052e-02,1.406121049358406358e-02,1.501984500232182371e-02,1.569441977809101288e-02,1.502970045664170015e-02,1.417973633021784793e-02,1.315390688261558819e-02,1.394859367249594306e-02,1.452318562268434775e-02,1.302060827769499669e-02,9.582463397711104766e-03,4.531345571898508576e-03,6.456173874999197176e-03,9.272419319989701897e-03,1.217319468817319901e-02,1.371263173815213607e-02,1.425783293775684420e-02,1.258012519393692658e-02,1.012480455898179775e-02,6.044043882138867840e-03,5.884108816924931221e-03,8.226828397431889747e-03,1.234862981248683461e-02,1.584284885142378876e-02,1.766471005685437204e-02,1.837126185330449635e-02,1.845819731143215001e-02,2.065707145378185838e-02,2.269097182305014962e-02,2.433556765667448454e-02,2.824501475424643152e-02,3.330007960217432061e-02,4.121140761929258794e-02,4.941617320319808410e-02,5.813445452898101384e-02,6.566653078822759504e-02,7.257983836755897700e-02,7.713796534479752665e-02,8.117997250288938593e-02,8.443510846129868852e-02,8.124178787028858706e-02,7.510270177501005007e-02,6.155407466968373931e-02,5.176381106879890392e-02,4.698469880716864971e-02,4.426721365208084041e-02,4.158524923484076263e-02,3.459027015568691410e-02,2.741680536534055884e-02,2.003468826472762018e-02,1.450023206835925234e-02,9.958782229206956590e-03,8.527110760650775945e-03,1.302461114545380369e-02,2.360731422186326117e-02,2.421619130139436582e-02,2.324920588488098294e-02,2.388894330321206932e-02,2.516954289455230337e-02,2.702770962946872066e-02,2.395645017581601519e-02
1.671591242912387476e-02,1.592200048345555549e-02,1.477597920881814665e-02,1.337666025996621204e-02,1.088644635396157113e-02,1.073568012421590410e-02,1.324928485909851114e-02,1.407489769441384181e-02,1.430428708241895767e-02,1.342537595128358990e-02,1.557976462986616212e-02,2.076745311816683912e-02,2.203027464638106919e-02,2.094258865298899777e-02,1.284664102939935861e-02,1.023557435776893849e-02,1.244050071712709052e-02,1.429598011872043953e-02,1.607288569307149112e-02,1.774605337251609211e-02,2.841578486301541556e-02,4.601390457582200944e-02,6.284223060862656474e-02,7.927797952184886809e-02,9.478311968040768754e-02,1.286477966372903126e-01,1.748852049147817667e-01,2.016263889785327446e-01,2.160175089359224476e-01,2.025587447985074119e-01,1.679015598449881130e-01,1.207875709067472159e-01,6.684267984171374244e-02,3.682092291543781482e-02,5.845336212232133538e-02,7.338554825252091574e-02,8.475063156255140118e-02,7.296872336796693392e-02,6.085813184315239793e-02,4.813886748457762293e-02,3.787886414760717468e-02,2.862035495764593193e-02,1.741954303522716754e-02,9.429489603566787795e-03,6.609301538381567344e-03,9.669694956281482331e-03,1.481417777986091151e-02,1.838398814723404828e-02,2.094546955247478595e-02,2.208898835471679103e-02,1.984312075913067380e-02,1.624785996980336600e-02,1.025885155289421591e-02,6.307639159241574221e-03,4.866755200035642950e-03,5.545329479409479879e-03,7.056553952220694786e-03,1.032038099151083577e-02,1.283503449567851076e-02,1.453977066457851595e-02,1.521809249552131919e-02,1.543169292777780283e-02,1.443171882791277963e-02,1.302230890767904631e-02,1.122419409469012710e-02,1.202291888231981493e-02,1.299458566381948323e-02,1.293517674961986753e-02,1.086334604141096435e-02,7.114497171527700038e-03,5.954050102028615385e-03,6.304910492628284895e-03,1.055671621745029459e-02,1.361959825659012774e-02,1.581416524438888221e-02,1.566856552495331234e-02,1.441517253808385912e-02,1.065364064461300775e-02,6.991458803845881226e-03,3.392691890336512611e-03,6.973073928169789930e-03,1.054042971635846607e-02,1.327456436485839261e-02,1.417357379310456127e-02,1.405306921009862910e-02,1.606672304894192840e-02,1.797678385874031462e-02,1.962091470238448015e-02,2.258735493921663895e-02,2.625522111544345907e-02,3.323000086117788854e-02,4.093224748051509099e-02,4.990756112865694233e-02,5.841818462378510490e-02,6.658558531719718787e-02,7.199033307344400445e-02,7.737191601693411969e-02,8.271818211474622762e-02,8.278783474332002124e-02,8.011954365084773821e-02,6.783613285149438232e-02,5.857380880717258376e-02,5.333960043622553576e-02,5.192109906565074706e-02,5.102894270189223952e-02,4.563426638880514752e-02,3.901977619980814133e-02,3.097930640939593194e-02,2.612700229617197570e-02,2.146660127784646641e-02,1.350598383672420646e-02,1.072388915802043041e-02,1.325659415653611742e-02,1.622822003175233493e-02,1.954028113222162216e-02,2.400152091199815249e-02,2.846647072929268593e-02,3.293476416064684831e-02,3.276912844086175836e-02
1.778181556713932104e-02,1.831119376306112462e-02,1.830046233827586216e-02,1.768748977517691293e-02,1.388276138679836978e-02,1.137888480843188624e-02,1.035653390257918437e-02,1.083394646957576424e-02,1.149966585908989390e-02,1.130067777302658227e-02,1.389462661173171409e-02,1.928151237520542294e-02,2.260170116502976945e-02,2.373811118801156042e-02,1.710626814992000089e-02,1.253809647377112854e-02,9.781928920303476285e-03,1.463639359685355544e-02,1.921393842560451329e-02,1.903367431780084162e-02,2.826920808978968663e-02,4.475598850483785557e-02,6.197719480162429406e-02,7.655621982830757011e-02,8.312763604212351776e-02,1.102275693862263262e-01,1.511619381876957990e-01,1.839727355409290499e-01,2.072801189797541799e-01,2.080895218228026033e-01,1.854431538965500281e-01,1.490134979924599978e-01,9.311394734205286072e-02,5.267923783815015720e-02,4.649603906226515426e-02,5.892200300577490196e-02,8.065280817973696781e-02,7.450962949999356821e-02,6.644213542332978728e-02,5.481109431533130044e-02,4.582262111225030715e-02,3.789885810700949209e-02,2.760601152917419032e-02,1.710229597136506477e-02,6.259045615292333983e-03,5.430651697017845232e-03,8.499258330376723361e-03,1.340644700070232724e-02,1.753519106268673633e-02,2.056924739419124792e-02,2.042920634637705735e-02,1.889821601372842011e-02,1.402784216925619110e-02,9.519458996741884949e-03,5.457006362146911774e-03,3.853373838841681227e-03,3.578680320677706493e-03,7.636003158397401680e-03,1.124445664309941910e-02,1.436764596237678597e-02,1.576207580236769698e-02,1.648883849694689555e-02,1.573801053271337014e-02,1.398803622884570858e-02,1.128950527342652624e-02,1.114771472494895457e-02,1.150081223366710564e-02,1.212675015182940359e-02,1.149700171621673844e-02,9.820847985791613874e-03,6.696815810009625405e-03,5.042902556929892977e-03,8.796610282315465990e-03,1.238952466845037736e-02,1.586500571693015907e-02,1.733601379671516687e-02,1.761779094875827109e-02,1.508879274508238832e-02,1.107476823597735791e-02,6.112854595747296144e-03,4.417460330093919869e-03,4.397084987455793237e-03,7.944161844553272733e-03,9.197488150406822605e-03,9.176508594458177015e-03,1.093263065040887307e-02,1.278233158924248214e-02,1.477380085345849324e-02,1.698884372872185022e-02,1.937638651940831042e-02,2.503623029855195012e-02,3.179651259468670860e-02,4.048256229555576013e-02,4.956459007709334424e-02,5.864056491230078272e-02,6.462261477286471156e-02,7.088987460417767172e-02,7.759196275155103018e-02,8.034677265043710381e-02,8.073733116366720031e-02,7.050688599837295900e-02,6.247686186279976378e-02,5.738073243352077163e-02,5.730690514413180198e-02,5.814078709099283759e-02,5.467224517865204581e-02,4.907530173082164104e-02,4.099022691051793649e-02,3.700220618049425425e-02,3.365809513459497998e-02,2.833580959154214512e-02,2.041978956616312402e-02,9.841778887869693376e-03,8.944577605427304207e-03,1.120245306341794388e-02,1.921560751976807840e-02,2.651121548345539147e-02,3.316014574387902286e-02,3.619538175558148496e-02
1.790931784924789522e-02,1.968114135714516683e-02,2.097253413182353921e-02,2.156321510802320859e-02,1.814233728164344611e-02,1.410177547534252618e-02,9.355462469687048088e-03,8.059208963855792052e-03,7.705014190176835698e-03,8.118062777543150199e-03,1.105781127209348388e-02,1.652425967382794778e-02,2.190693241108417760e-02,2.540657067285296070e-02,2.085634600803275979e-02,1.433475080019646145e-02,6.082196091174971002e-03,1.360916407077056994e-02,2.118709416059981823e-02,2.110669624514334083e-02,2.896937754310979427e-02,4.294914283302325025e-02,6.072980678258523002e-02,7.446551275698855277e-02,7.515300073833548755e-02,9.487522018632231491e-02,1.274251934487834470e-01,1.630948050016226558e-01,1.926794458496538243e-01,2.065675781319850635e-01,1.963668479300555436e-01,1.720108067837655685e-01,1.210997444119758515e-01,7.497332940873967233e-02,4.061715997957854318e-02,4.592454808205971573e-02,7.128770663707083288e-02,7.142625696095615540e-02,6.818488187242777165e-02,5.868438564979949756e-02,5.154398977923572989e-02,4.534827276403505941e-02,3.688320419832290947e-02,2.742804538772881939e-02,1.637867347096822607e-02,7.974223022937414890e-03,1.471729348606727432e-03,6.800681572320262623e-03,1.185359961869123999e-02,1.651834460317412601e-02,1.857482352997388148e-02,1.937388342959763671e-02,1.644191708870219176e-02,1.305215000261395093e-02,9.098425476795519995e-03,5.965926261999035182e-03,3.623859328199823763e-03,4.923642225686440665e-03,7.851013855085339777e-03,1.253794087033544349e-02,1.533644536331123936e-02,1.738901353701628044e-02,1.774577536030130798e-02,1.655569713292763187e-02,1.389709987011835020e-02,1.263058844933727734e-02,1.176922453138250224e-02,1.159480845491330132e-02,1.146571212266132844e-02,1.137438224392371688e-02,8.523545754653985562e-03,6.357981149609659259e-03,7.560963896778700316e-03,1.041971231948567514e-02,1.448772780859671101e-02,1.740299847429186211e-02,1.921522230624558500e-02,1.825582684694835797e-02,1.550636787136461595e-02,1.161431516198089750e-02,6.786427232227534335e-03,3.425855841475180987e-03,3.614916038978257390e-03,3.958726050792227280e-03,4.388508181667821577e-03,5.548313768563845408e-03,7.203870192664163508e-03,9.841249407699917059e-03,1.158409364397475216e-02,1.294925964522521469e-02,1.695122079655160888e-02,2.237944304531861578e-02,3.030362221460655356e-02,3.956601316140803681e-02,4.920565997478867221e-02,5.564759862587221467e-02,6.247985061821263730e-02,6.990717049148606477e-02,7.461149011238062123e-02,7.738342418607405127e-02,6.955924229330175124e-02,6.318666083933385802e-02,5.874954663710471592e-02,6.003432832926635515e-02,6.249466977456297201e-02,6.112169403378751864e-02,5.689947220865845118e-02,4.934644158069376868e-02,4.617658366150786953e-02,4.409405154288943696e-02,4.216462305643012970e-02,3.596525250628702930e-02,2.538357299604658904e-02,1.418839467238571135e-02,6.021788063737366220e-03,1.201878220760782545e-02,1.906837405889596701e-02,2.706660335020276420e-02,3.306482244013840555e-02
1.715575988773589133e-02,1.994346506853353698e-02,2.254602815284586365e-02,2.451797020982446340e-02,2.238190418788242597e-02,1.826503439516682578e-02,1.189224919684808875e-02,7.201774926350617938e-03,3.658362979751856973e-03,4.214101221642016851e-03,7.200027474186531523e-03,1.261614173738550074e-02,1.993608582735322682e-02,2.578420907955287708e-02,2.377329304951315836e-02,1.572988289577192250e-02,2.389648633414249729e-03,1.162429504616328477e-02,2.158356588860100775e-02,2.288666850047535450e-02,2.965048643808140816e-02,4.061968284492960268e-02,5.853973822476031541e-02,7.201261639799125258e-02,7.032241105972777961e-02,8.305770485684557669e-02,1.055145306799809557e-01,1.405884502858009422e-01,1.733338361938269179e-01,1.983000629600533415e-01,2.001342890828423371e-01,1.883754838996927194e-01,1.458023195215897294e-01,1.014579977080371648e-01,5.507915905823496799e-02,4.670684905521811647e-02,5.767959045422301617e-02,6.393596191328973499e-02,6.576439102064506048e-02,5.939292688409017473e-02,5.453354019715687950e-02,5.026757583697313153e-02,4.425616790488856589e-02,3.658440528879064457e-02,2.623919021538246785e-02,1.717349170027110405e-02,8.886220000214871753e-03,4.480853674176408195e-03,4.333838724248178370e-03,1.017513039697494695e-02,1.426253843686931151e-02,1.738291685405570983e-02,1.694649481237498270e-02,1.552493976574009782e-02,1.288981507532105733e-02,1.061800374264675224e-02,8.046918234307438161e-03,2.976892669410322392e-03,3.070290063057650939e-03,8.745766330807598632e-03,1.310290468412464090e-02,1.683945499694718823e-02,1.890062573557206582e-02,1.904771179148712079e-02,1.737762884482949022e-02,1.592414487933196260e-02,1.443050179090905535e-02,1.263428285624065145e-02,1.184632468603974420e-02,1.189858381956177165e-02,9.897584275372860868e-03,7.891763687519476669e-03,6.705265872498432193e-03,8.336588158435402629e-03,1.202586894507208688e-02,1.597988587303459523e-02,1.907350074722385241e-02,1.973410401672672301e-02,1.853470376132201891e-02,1.614806721342301396e-02,1.231947146781748118e-02,8.484859274564299225e-03,4.797334338130657475e-03,3.572242793164968379e-03,3.715169799014821691e-03,1.724616883612953852e-03,1.515995410878627579e-03,4.962871297559024071e-03,6.668414486116154387e-03,7.556554012371771191e-03,9.440061352886440146e-03,1.309061749342299227e-02,1.983350903399774476e-02,2.887292793171176986e-02,3.869988812330152350e-02,4.559651278086962467e-02,5.283521783059313970e-02,6.059545528147203264e-02,6.655349919321273955e-02,7.096873014616789099e-02,6.550892470317984384e-02,6.091702090678410841e-02,5.748231930584449256e-02,6.008423237349243967e-02,6.403547283413159319e-02,6.476693211162010133e-02,6.215792216209779786e-02,5.564385663733759785e-02,5.309927393017012387e-02,5.196285944216318120e-02,5.337701195236935203e-02,5.021018589932172566e-02,4.234182921556553514e-02,3.029932460204996097e-02,1.819797547759477094e-02,9.472071341492468294e-03,8.742158859310870597e-03,1.521851046029200002e-02,2.323794418147719087e-02
1.570214341388785975e-02,1.910986083334609981e-02,2.287931971591773694e-02,2.623056851219624647e-02,2.588208190775606252e-02,2.277298672722739836e-02,1.651986511282025130e-02,1.003338967593057560e-02,4.104336955273705720e-03,1.487905251130880284e-03,2.716908887148932524e-03,7.791347863328105736e-03,1.677175914636353307e-02,2.480093110158530789e-02,2.562173276568077002e-02,1.954719294790649084e-02,7.418206950929113336e-03,1.312197211909378256e-02,2.026137649740540961e-02,2.360964417590390510e-02,2.968301574300542117e-02,3.785503053466362372e-02,5.515082225713480862e-02,6.842172916211725076e-02,6.713404148464928445e-02,7.431679927388001872e-02,8.720790074719017571e-02,1.182184627751907413e-01,1.506988198883861818e-01,1.840420242836670051e-01,1.966939169145618393e-01,1.971869974777235024e-01,1.650771092641026283e-01,1.278166905441599777e-01,8.138244752648812752e-02,5.657402450788885651e-02,4.294815654280689787e-02,5.343925183833944659e-02,5.938595170252879835e-02,5.691710447163826625e-02,5.455014485155830484e-02,5.219175212939897168e-02,4.894073506872514967e-02,4.357580162152268483e-02,3.480710450109559401e-02,2.624519322611301372e-02,1.788116440077292327e-02,1.108152642424082776e-02,6.236269614928261970e-03,4.139361322018265607e-03,7.796115249129601660e-03,1.294429563249604835e-02,1.526254667145185429e-02,1.624512745626566224e-02,1.558231734829570309e-02,1.475262869217921005e-02,1.339740654545290566e-02,8.991024633807392225e-03,5.973415037078010081e-03,4.457180915933849422e-03,8.815869912668569675e-03,1.415306844592299773e-02,1.815862455951398891e-02,2.007748206636751284e-02,2.001529659214115742e-02,1.932918628875129885e-02,1.818816792681528238e-02,1.565478723573947295e-02,1.378353247918769411e-02,1.246404933473931921e-02,1.077569951729006464e-02,8.877744028415521585e-03,6.442777440955989830e-03,6.742501997959289561e-03,9.039472896424299159e-03,1.347336525348493200e-02,1.740634587507525199e-02,1.946105524877585202e-02,1.978711670912541853e-02,1.900978588435718944e-02,1.650151661992452223e-02,1.363593156811443788e-02,1.012495225720693760e-02,8.515838345462932099e-03,7.963316322143075901e-03,6.507393192768872250e-03,4.807782859046534456e-03,2.640026725088362794e-03,3.081579600454947571e-03,4.723908470916915459e-03,3.663363003478575276e-03,4.802382284651251360e-03,9.790639875893158636e-03,1.808157267354019992e-02,2.761451929838716970e-02,3.493053007458409021e-02,4.249844590634375280e-02,5.045041370806015862e-02,5.716465695785391543e-02,6.262618926784163653e-02,5.921099474003888030e-02,5.627025417228871673e-02,5.396211888460848705e-02,5.776744352235109459e-02,6.303287462299837773e-02,6.574475472020785416e-02,6.485968729477453731e-02,5.976973755413903661e-02,5.759533359013463416e-02,5.695672271810251625e-02,6.104789027658823197e-02,6.109283819675900840e-02,5.698508701444816860e-02,4.602252483134985223e-02,3.382868311627390545e-02,2.207211635682206075e-02,1.179353247293762896e-02,2.846957847280123452e-03,8.902233180632188742e-03
1.388450995640425067e-02,1.731260456188201541e-02,2.194021432704532093e-02,2.650519066760410880e-02,2.821032663029066079e-02,2.667069564302090509e-02,2.143563562941206216e-02,1.517903628236933616e-02,9.268049529419486107e-03,6.512865423488053279e-03,4.504901173348304852e-03,3.244156779000341873e-03,1.259848902293388660e-02,2.248976061282675562e-02,2.624841534780941385e-02,2.272013310980314574e-02,1.279356474917215693e-02,1.395492725250607399e-02,1.731242116913262255e-02,2.291323676887502964e-02,2.875338652298004005e-02,3.477785108561742139e-02,5.056352092105370621e-02,6.323395753410737674e-02,6.384014591097664226e-02,6.773854979889108729e-02,7.385562066164025330e-02,9.769790873831926681e-02,1.265018434834624672e-01,1.649594301596720991e-01,1.864823719719053696e-01,1.980540276269555366e-01,1.775913399381806590e-01,1.497780739515147119e-01,1.080441026604440358e-01,7.065949709632549092e-02,3.577493803739744543e-02,4.414696757058571286e-02,5.014968302195407096e-02,5.176477980328581668e-02,5.172764524612277759e-02,5.097232789915454032e-02,5.040358147308206249e-02,4.757462519705595028e-02,4.110634797618888114e-02,3.378712040759629387e-02,2.623872432019212081e-02,1.985952043339717782e-02,1.347400442388894948e-02,7.079611991815313449e-03,5.755642671730199292e-03,6.521475208781744165e-03,1.148194469856413449e-02,1.493872248380791190e-02,1.654312643012707806e-02,1.747011319661094866e-02,1.771482421674910879e-02,1.476378240986650492e-02,1.017561458221354596e-02,3.817580786160151406e-03,5.460018027516820929e-03,9.222823151056274912e-03,1.505076225020825220e-02,1.884825217249254045e-02,2.071810047116834710e-02,2.140842601199424364e-02,2.142650013945420623e-02,1.955726112794354057e-02,1.727043692782165296e-02,1.463562507052380487e-02,1.226017132047846694e-02,9.770716838960379069e-03,6.802104168444537621e-03,5.782285353683117371e-03,6.185742950427853756e-03,1.054190584613932079e-02,1.477359603936571897e-02,1.774160410111208161e-02,1.929833857248363163e-02,1.995426011382858689e-02,1.889563393416440751e-02,1.727114536619459711e-02,1.450979888641509841e-02,1.294886211931840780e-02,1.205481963704547500e-02,1.124704049192313399e-02,9.181380526913340487e-03,4.573002248743923519e-03,4.130185865121421308e-03,5.657662770647915208e-03,5.555311179269327090e-03,5.163761649724378684e-03,4.266115728388314952e-03,9.338956564141825956e-03,1.686878530205285914e-02,2.425458592167643521e-02,3.192696227536600401e-02,4.003624917443529552e-02,4.724331099996746663e-02,5.339935286218765870e-02,5.158943961271175715e-02,5.001896297534130786e-02,4.876773515411136212e-02,5.358339700988176690e-02,5.993720738400108022e-02,6.443060728120068859e-02,6.527385461798423938e-02,6.185002220104167392e-02,5.982063695058633529e-02,5.922418016216574044e-02,6.486766466862517455e-02,6.770391244521087315e-02,6.765904884113647932e-02,5.919073668502020102e-02,4.903409939930844508e-02,3.862602974440624420e-02,2.962398353952141669e-02,2.188909427107154498e-02,1.301194094504390560e-02
1.219857626702181008e-02,1.482524833452423391e-02,1.982285687813365241e-02,2.526547325041732933e-02,2.909691786796126181e-02,2.941997975444818336e-02,2.574738353056461523e-02,2.020545331796157890e-02,1.470481115674818554e-02,1.177694231971970588e-02,8.081723337517962222e-03,3.619154210142988375e-03,1.048505814007027678e-02,1.899787055797710553e-02,2.559472641295469295e-02,2.485295024925080615e-02,1.766749719109471373e-02,1.388713837001188944e-02,1.302005969773073306e-02,2.074372689692264432e-02,2.678554136239357994e-02,3.153213590649338316e-02,4.498636713540020426e-02,5.639475431240806302e-02,5.920288795496317369e-02,6.233238181900763869e-02,6.567844452796879617e-02,8.032054718724924991e-02,1.026776594719799734e-01,1.425694620349408359e-01,1.704008818173048390e-01,1.911452725430285715e-01,1.826049419332487211e-01,1.653633849227552632e-01,1.311497554156182133e-01,9.020489374829181173e-02,4.609069544477190777e-02,4.210410029868506820e-02,4.103493252091568178e-02,4.536840801780837873e-02,4.674975435864402173e-02,4.689249374348001403e-02,4.846892573629557610e-02,4.802621477015382029e-02,4.433234141247040933e-02,3.888257001568265481e-02,3.282332997731118168e-02,2.740100053898356092e-02,2.186401865860029131e-02,1.616580678157640213e-02,9.695872518802479620e-03,4.089255778525201744e-03,8.033674946298238750e-03,1.185656196058104336e-02,1.552973545244822062e-02,1.820883395153100742e-02,2.016460695428315061e-02,1.919067803112886605e-02,1.616818896703461905e-02,1.093104029111326495e-02,5.651079717164338156e-03,2.465818742074312418e-03,9.637733599400824872e-03,1.508787934195176747e-02,1.890343415275393124e-02,2.124871517234636076e-02,2.290521506348511260e-02,2.280108701655936265e-02,2.137002524626423552e-02,1.883318537316132010e-02,1.538528716915729677e-02,1.177134710017802358e-02,7.983714862220318842e-03,5.538836676651607248e-03,4.074621563052533042e-03,7.949141608220916186e-03,1.198413833389203390e-02,1.521798149378767763e-02,1.748834065767658832e-02,1.914371003688025014e-02,1.940870588727590385e-02,1.902880534739362361e-02,1.729024572672546375e-02,1.601046152366039990e-02,1.498555255259701943e-02,1.484439873416805618e-02,1.314617863931369715e-02,8.279810558757420835e-03,6.931467788006002648e-03,7.309783943846749274e-03,9.464897196406533292e-03,1.057953294257717690e-02,9.873333052566806572e-03,9.507139532647384053e-03,9.587148660396812086e-03,1.524861086555935261e-02,2.184287181473134123e-02,2.985926855395103913e-02,3.736622870517405937e-02,4.402148116741418094e-02,4.337772753220761612e-02,4.284524362636239758e-02,4.246111935966558060e-02,4.801766469538654158e-02,5.517717304380817533e-02,6.124646948281838033e-02,6.376822590899620946e-02,6.214285809482025802e-02,6.014862875288058686e-02,5.924876038778874310e-02,6.509027544206164029e-02,6.985573849542600633e-02,7.351683238996331582e-02,6.846151063986583019e-02,6.156295424538567318e-02,5.397136722266651643e-02,4.745162257165041336e-02,4.189785931735404839e-02,3.363875528970993595e-02
1.114578594922627057e-02,1.207572220279320811e-02,1.677833059398376250e-02,2.255967621712986343e-02,2.841074905342910045e-02,3.070329536118660343e-02,2.894307534477152943e-02,2.446411906096781705e-02,1.969128121052446390e-02,1.674313011680185481e-02,1.328933508666342578e-02,9.329896120109227101e-03,1.084355483978950534e-02,1.460713543023848399e-02,2.371340497063125288e-02,2.576959046935652087e-02,2.163545827295905097e-02,1.298503623294795621e-02,7.835231792082642324e-03,1.728393409405005327e-02,2.388250060604257818e-02,2.828613495793967994e-02,3.880555530688803434e-02,4.825742132396981798e-02,5.275799792744302608e-02,5.708935553998822909e-02,6.130667426734271591e-02,6.670854089946445797e-02,8.129512148421358386e-02,1.186596777928943108e-01,1.497617942490296061e-01,1.771839202763487997e-01,1.799684196837345596e-01,1.735062091163248610e-01,1.486374844097774484e-01,1.111516212911058538e-01,6.740055514770462719e-02,4.921022236659758353e-02,3.825214333907470815e-02,4.068712681818888871e-02,4.115630741231517120e-02,4.087866411345302681e-02,4.347862470650980249e-02,4.477711187864945319e-02,4.398000625439708877e-02,4.082886481467169759e-02,3.679734191299934010e-02,3.279678460644645799e-02,2.862500268592828648e-02,2.421243615202150687e-02,1.808447500723765061e-02,1.178010671487940246e-02,8.633075537052496695e-03,8.775980294974405210e-03,1.297170468389149955e-02,1.679439513331522707e-02,2.018220641876382337e-02,2.143546779469682542e-02,2.049864402329593105e-02,1.719416063315548637e-02,1.166068089051545964e-02,6.624770665824051587e-03,6.371386630719508455e-03,9.037527659796356500e-03,1.447536969917224622e-02,1.841772963215671660e-02,2.183835667907478573e-02,2.417783011937567686e-02,2.474240810359379719e-02,2.382790654107625958e-02,2.000821679518441018e-02,1.563656764283181955e-02,1.063734990390299492e-02,6.548310761824296250e-03,3.124008797220612609e-03,6.256901985771711264e-03,9.744001224460528687e-03,1.268009284597801031e-02,1.508356011767269557e-02,1.714705440011871432e-02,1.835344840947239486e-02,1.896025338030831939e-02,1.825515244031148537e-02,1.736787010548621057e-02,1.637937588464509833e-02,1.691336498578937045e-02,1.578959785124239151e-02,1.127735507295008106e-02,9.065056629867727575e-03,8.055258110215323883e-03,1.191558480437432052e-02,1.480808870829617568e-02,1.600690272930297559e-02,1.459677298210266747e-02,1.222502201906868965e-02,1.196051936835707680e-02,1.441657840257785407e-02,2.102037902202416250e-02,2.820167289532055088e-02,3.496762743249177963e-02,3.503100002594133899e-02,3.517210902676236317e-02,3.541686657074536587e-02,4.137660183703589095e-02,4.899731802193953850e-02,5.646771732012678680e-02,6.061958668705026698e-02,6.089204782446762387e-02,5.900512981475478091e-02,5.766020057278745808e-02,6.237783289866086212e-02,6.796643781858181799e-02,7.444893566397299545e-02,7.313686642335283372e-02,7.011949907489700706e-02,6.622587781618985425e-02,6.282061617026554745e-02,5.985548108894785113e-02,5.366073766051647487e-02
1.090694876557096737e-02,9.688433517261774847e-03,1.328126538747921234e-02,1.856336280775662886e-02,2.616213506879555908e-02,3.036472656811776277e-02,3.069944553326248507e-02,2.756283220164204920e-02,2.380326212713581441e-02,2.103165061493357871e-02,1.795573646945716056e-02,1.457551969070660161e-02,1.085002673567205672e-02,9.840002654696634182e-03,2.080934136743919916e-02,2.539531298021487082e-02,2.437637689545870887e-02,1.209805295651735293e-02,3.455179938581786139e-03,1.323620871320338802e-02,2.028771449848443265e-02,2.523717384369881384e-02,3.257550707024611802e-02,3.955625390260895241e-02,4.477816778711212614e-02,5.122698844683044872e-02,5.850263758549797272e-02,5.699656168850425475e-02,6.433750759630217642e-02,9.515868948713022968e-02,1.262105561699097545e-01,1.573979798953820120e-01,1.701268288573734577e-01,1.738299011631269375e-01,1.592467991919964687e-01,1.290782780521970152e-01,9.104176121709697811e-02,6.486459815737896650e-02,4.611561959832713442e-02,4.112253826273040702e-02,3.761390616517816532e-02,3.493325752407554913e-02,3.659235517035789448e-02,3.827583092848234336e-02,3.999855957855606020e-02,3.926884373048755705e-02,3.757666637548863486e-02,3.532815635883718858e-02,3.289472110471002020e-02,3.020123473538267531e-02,2.540380327795744436e-02,1.983665391091494340e-02,1.336933266948582555e-02,1.003318404114893550e-02,1.055427703763616235e-02,1.376418206312432502e-02,1.760181102968344166e-02,2.094836453659669126e-02,2.230252128431696110e-02,2.150273558966620327e-02,1.783963871420850625e-02,1.307076970134013819e-02,5.854950832361023247e-03,4.339374786614004845e-03,8.235421674315361942e-03,1.299482804613203563e-02,1.791786171851732223e-02,2.291919502140557507e-02,2.618169104207326847e-02,2.799515599422374920e-02,2.493478514269469037e-02,2.074808103756272185e-02,1.485184960972974269e-02,9.295858385587706454e-03,3.988357197849401459e-03,5.675386059894218203e-03,8.033195365288606574e-03,1.061064744747411068e-02,1.282246444886054465e-02,1.480089735611985792e-02,1.641220683300513572e-02,1.754678650907239013e-02,1.760313237791910970e-02,1.705283024100869016e-02,1.616550143423315863e-02,1.730604919932357197e-02,1.688778325319077039e-02,1.326743654896751952e-02,1.032415218982455501e-02,7.852753000832478694e-03,1.274886665380953014e-02,1.696288952678431938e-02,1.998325353475505217e-02,2.008905756877115215e-02,1.886107832057711681e-02,1.525102553544687746e-02,1.396170695649327949e-02,1.621055692138322762e-02,2.131084287502826857e-02,2.690170769711460949e-02,2.696184765735410577e-02,2.724646957139300468e-02,2.783040075716443698e-02,3.378440297072397847e-02,4.145323253046866857e-02,5.014504419964004034e-02,5.588978447167836094e-02,5.818935677241954957e-02,5.669664582700470468e-02,5.502845998650088971e-02,5.758652202873579262e-02,6.286723417389990243e-02,7.094224510891299074e-02,7.314527108028624769e-02,7.403854155269172510e-02,7.415882939919497818e-02,7.404599193046187966e-02,7.372305386898492241e-02,7.020987212181034609e-02
1.133474708010037690e-02,8.572205172644191754e-03,1.008462782235446109e-02,1.357468574089746097e-02,2.251018402685195374e-02,2.841020913067474063e-02,3.085316755484739104e-02,2.924438606557099724e-02,2.671891366724338246e-02,2.431971866945659144e-02,2.173276914907241661e-02,1.895806510609089959e-02,1.125868705834589742e-02,6.372773011701955356e-03,1.753269770038680050e-02,2.377034897010800452e-02,2.568600406708082887e-02,1.543990890146437062e-02,7.014358776255951930e-03,1.105539258423139139e-02,1.634560699853385840e-02,2.259783406368613690e-02,2.702957727329299842e-02,3.142055367934423749e-02,3.622812962205945730e-02,4.463165163816822101e-02,5.545852861678113310e-02,5.089894777471123954e-02,5.293982665343385796e-02,7.386940863389947209e-02,1.016382290487590628e-01,1.334259833889841207e-01,1.540864058949497351e-01,1.666255755552889795e-01,1.623979080798132191e-01,1.417671626471578572e-01,1.127764822353358731e-01,8.415583067116411131e-02,6.095155377468562674e-02,4.777760033689713859e-02,3.906438525164100672e-02,3.248840431096279568e-02,3.029925192686623928e-02,3.009064820735398924e-02,3.307106352403697130e-02,3.437532246356589383e-02,3.497603592173241516e-02,3.460192046081404099e-02,3.406861163606113990e-02,3.331143714341595896e-02,3.047265935592436553e-02,2.665826880134972501e-02,2.010692455348653609e-02,1.472701811990488434e-02,1.079018725464133202e-02,1.108379653375881312e-02,1.294103786231809612e-02,1.767366575596587483e-02,2.104707016189321517e-02,2.295104377028473266e-02,2.183514453453716531e-02,1.937060637364170987e-02,1.342732992750717697e-02,7.985033568162373807e-03,3.018351215263292281e-03,6.219193045223610911e-03,1.135141433248277459e-02,1.874574618423070077e-02,2.488313301244474834e-02,2.997306565438041109e-02,2.872210634764599604e-02,2.577097229803794465e-02,1.982608406265127382e-02,1.357062563019350784e-02,7.088346267290805518e-03,5.895476989017803607e-03,6.062737703111134753e-03,8.746694704176320723e-03,1.092660558894902739e-02,1.278478491013072295e-02,1.437813516173088585e-02,1.559118155500903435e-02,1.594094884770781706e-02,1.549805606619818546e-02,1.461479657679495489e-02,1.618667918507980114e-02,1.647417201526466674e-02,1.410245875178871809e-02,1.077691181049031388e-02,7.165775873580833635e-03,1.226154596386539765e-02,1.711324458575850041e-02,2.153781813796643019e-02,2.348353988667806896e-02,2.418842805210055097e-02,2.092477344746419832e-02,1.855273415678556498e-02,1.754004280378026331e-02,1.917033790138891053e-02,2.140488287334833470e-02,2.013488594169764861e-02,1.958985531194263469e-02,2.001144641804845914e-02,2.542333635885384718e-02,3.262118129433171781e-02,4.222335544578183913e-02,4.945608156150824164e-02,5.391888955096521552e-02,5.329672850825176167e-02,5.170167837019418178e-02,5.157237782248137725e-02,5.558687564118763857e-02,6.385421915174573082e-02,6.891218442638302744e-02,7.325664095698485034e-02,7.718918450796229125e-02,8.012671768665448335e-02,8.216751312242309702e-02,8.150697431245773616e-02
1.208151757902360679e-02,9.207266932848803820e-03,7.736905727510210579e-03,8.001924673276743921e-03,1.777102516047641967e-02,2.502529194567794379e-02,2.941544257027028930e-02,2.939886925316398392e-02,2.823168473481855664e-02,2.636980596316321201e-02,2.434515220757455314e-02,2.215772346805262860e-02,1.394885326494097952e-02,7.782788478344506919e-03,1.521351743422745539e-02,2.105906767736072382e-02,2.551275368490913201e-02,1.805243428694186178e-02,1.052547782310016972e-02,8.681399759565448099e-03,1.245270600072058073e-02,2.054850360295905690e-02,2.305874628298165696e-02,2.539075802279081376e-02,2.884423959544500649e-02,3.815979187149733109e-02,5.142587005636123365e-02,4.724811277104769280e-02,4.630373028113241030e-02,5.614958683543076756e-02,7.810776909961730796e-02,1.071835035850786516e-01,1.333325576547605973e-01,1.528181423344608381e-01,1.581921029165285486e-01,1.481356006085269295e-01,1.301498919100804452e-01,1.025717108990425175e-01,7.800436067793428685e-02,5.901262303076847127e-02,4.629210948851775198e-02,3.641339597393964539e-02,2.868438707686823269e-02,2.431895951378395399e-02,2.536946799695018531e-02,2.727570316803230865e-02,2.943595046758375883e-02,3.072668783364672362e-02,3.194460457398158593e-02,3.306011730938627352e-02,3.252200530249649973e-02,3.103864418433589442e-02,2.591287696765902718e-02,2.062858410022854264e-02,1.514900601085533878e-02,1.121079010233396595e-02,8.694103346336939930e-03,1.261992033239972208e-02,1.672593728734284718e-02,2.102676501945380944e-02,2.276472923547602500e-02,2.313671350638715762e-02,1.946626480451678354e-02,1.483426657837275120e-02,9.289404879816770891e-03,4.641102370263921334e-03,2.869611605495247467e-03,1.191968152569151777e-02,2.055567948600844214e-02,2.884661747975904300e-02,3.014655738241078103e-02,2.932612064202777535e-02,2.439901994370635013e-02,1.845146975514186036e-02,1.175864746696185341e-02,6.552392842126849790e-03,3.580257677302611449e-03,6.419337748451788180e-03,8.850164601607798942e-03,1.102040429434257736e-02,1.262226266046240046e-02,1.380921122556668865e-02,1.408556947449191889e-02,1.346780554544824669e-02,1.235330707308847191e-02,1.408258213886925958e-02,1.490890112150879132e-02,1.383603308318373526e-02,1.063331793936096031e-02,6.574949764600090778e-03,1.098828174579255697e-02,1.569353499068675342e-02,2.090965044705886747e-02,2.438514593092441785e-02,2.690775122723685492e-02,2.515464410915630583e-02,2.362223768297488924e-02,2.242630936083638352e-02,2.158951107693671961e-02,2.060211246558448991e-02,1.661454983321918738e-02,1.398470825584325131e-02,1.316516141845293711e-02,1.713314376393171995e-02,2.302943878109493803e-02,3.285625357794353524e-02,4.120864908337991406e-02,4.783742767068559915e-02,4.864536382332269870e-02,4.773837057579040366e-02,4.508474254280897542e-02,4.719392298788243484e-02,5.419124897622341203e-02,6.116673103666431244e-02,6.817173234912268787e-02,7.532862023278186214e-02,8.077804237152710898e-02,8.468863735744902588e-02,8.667325310799214866e-02
1.248944902930651524e-02,1.062266451094383279e-02,5.950264318257004331e-03,2.398465330542198879e-03,1.245698014357222647e-02,2.061361221482010259e-02,2.660421116348255996e-02,2.809725391915532736e-02,2.828676118640264386e-02,2.706738017386991352e-02,2.562535747393369923e-02,2.396069308659402874e-02,1.695016189778644419e-02,1.087578554625269305e-02,1.309056476769205127e-02,1.755421094438509508e-02,2.399247200861820764e-02,1.937610376932301023e-02,1.306812699913278801e-02,6.280955590934495306e-03,9.048212922126888658e-03,1.917347859285048819e-02,2.136630023948322618e-02,2.293984728018240091e-02,2.502638218228423611e-02,3.364128440695521305e-02,4.665573852292261015e-02,4.433929902892599223e-02,4.223441787392830798e-02,4.303736433349215212e-02,5.777478918543786646e-02,8.070051577311358748e-02,1.096998477931000471e-01,1.338815350112849967e-01,1.473926344866183791e-01,1.478671645099791654e-01,1.415790701870870971e-01,1.174618681413693161e-01,9.405898055758359078e-02,7.197889753292982529e-02,5.717658889941604899e-02,4.561261825837923528e-02,3.507375943058396728e-02,2.669941368386945929e-02,2.181030086431855891e-02,2.135572093461751350e-02,2.262484902046273116e-02,2.468383347039093331e-02,2.693899803131134807e-02,2.947004087331451389e-02,3.118872525454945838e-02,3.221251531163633192e-02,2.945860159895205554e-02,2.576755481063005768e-02,2.092206872623262465e-02,1.563083498793350207e-02,1.070283795567639543e-02,8.815817038659957278e-03,1.043848525451274156e-02,1.585541199238661714e-02,2.018665697912583670e-02,2.346294498282880392e-02,2.268191482047512281e-02,2.030419674593012327e-02,1.641063571677292901e-02,1.194230129813506416e-02,8.213263668643770721e-03,7.797656992358257232e-03,1.349126243763511084e-02,2.427587798421381587e-02,2.841123253179624747e-02,3.027552527364250207e-02,2.740024632296203522e-02,2.285262257539369402e-02,1.708362341436804946e-02,1.014708013243955861e-02,4.843851417698091973e-03,4.314129293995596845e-03,5.832194053999599677e-03,8.657356824880203805e-03,1.070551808301514231e-02,1.221537190392618134e-02,1.254824321526428442e-02,1.170823741837670115e-02,1.021663322803034041e-02,1.182326378155341626e-02,1.289828019267711887e-02,1.281731268085935238e-02,1.016250336632070449e-02,6.405991938382037641e-03,9.480812631308547025e-03,1.337310134900987837e-02,1.869595911006704039e-02,2.308604796402533021e-02,2.688097617411686069e-02,2.684208011029230040e-02,2.683879132371744941e-02,2.688978904180199664e-02,2.578248513667857900e-02,2.391460832810567150e-02,1.820555223805058603e-02,1.374874528374813928e-02,1.096160384378223537e-02,1.192207385245212109e-02,1.471306756769940813e-02,2.300665940234085730e-02,3.135975421259248885e-02,3.978240883940165756e-02,4.247232338770069726e-02,4.295232887097876623e-02,3.874506424778632885e-02,3.872146963903585343e-02,4.299164162405528372e-02,5.077763951338243320e-02,5.944635194879202555e-02,6.902115259944424652e-02,7.631968210865894275e-02,8.156675737929457159e-02,8.574329827851819019e-02
1.198091904263262619e-02,1.161771514689973785e-02,8.080950216068546674e-03,4.822137748796327672e-03,9.927130132734083429e-03,1.591327714486805850e-02,2.290296137244758612e-02,2.563761159286228469e-02,2.702506159458599108e-02,2.646233648073801140e-02,2.555555550929491937e-02,2.430471868025670806e-02,1.888309021185766157e-02,1.336502130816122694e-02,1.075019321202532081e-02,1.368311791150089371e-02,2.148724018761117432e-02,1.944059046269921293e-02,1.477983062773342848e-02,5.785993751254854892e-03,7.890446212909591611e-03,1.854185713036861360e-02,2.170191568559905887e-02,2.402310726436144434e-02,2.607970525009357943e-02,3.256265487462143421e-02,4.202858060355495196e-02,4.110423063287781120e-02,3.894506885772575089e-02,3.531116173167141159e-02,4.245763738570822871e-02,5.593897714763407941e-02,8.520336127779168378e-02,1.116970284072987818e-01,1.313515565715111799e-01,1.413181951580601281e-01,1.461901555922582585e-01,1.272317457744686908e-01,1.069632470305596217e-01,8.426865768272415180e-02,6.893563550054096489e-02,5.690611480712608888e-02,4.660118659324982704e-02,3.671913758024725194e-02,2.751799575509157950e-02,2.238280828226676955e-02,1.905132573353874453e-02,1.934647973045484914e-02,2.065102498988864374e-02,2.337502671223790074e-02,2.671444240715372884e-02,2.989337036855243754e-02,3.000951056857703581e-02,2.872378415048678496e-02,2.571112059413902667e-02,2.170541605581592648e-02,1.719587326748442391e-02,1.114499674560600131e-02,8.356156459767527869e-03,9.093841834513184327e-03,1.437844309763279017e-02,1.996034318282256803e-02,2.224689146345387725e-02,2.259675308527267501e-02,2.110798813226939102e-02,1.869029245302332096e-02,1.487127323271334248e-02,6.106456732954641115e-03,7.325769241814168720e-03,1.686518925785554512e-02,2.329585741379432487e-02,2.791471290089659121e-02,2.785927654431594874e-02,2.568797050078818617e-02,2.197136637128782946e-02,1.572415633451623024e-02,9.682309688721267571e-03,4.795867127755013698e-03,3.678542466560312009e-03,4.967037741390269157e-03,7.734546040712569730e-03,1.001738167688358098e-02,1.099693469745152176e-02,1.031620995303722012e-02,8.713108672521606771e-03,1.015409504899181768e-02,1.127454587456967056e-02,1.166674764930772032e-02,9.682592484001904809e-03,6.646453468288155732e-03,8.165251986311069382e-03,1.087462000292730227e-02,1.566748464208177899e-02,2.024813383547546114e-02,2.457891315291471299e-02,2.594848406749896905e-02,2.742079098893361253e-02,2.904972821589434789e-02,2.908800239993337977e-02,2.815170566295765314e-02,2.269859824965544948e-02,1.825593915166122405e-02,1.516054447407732056e-02,1.372178417413104021e-02,1.315834354438829082e-02,1.552701958365449234e-02,2.095794967103293063e-02,2.996869787099287752e-02,3.460591768641765181e-02,3.704583137185248759e-02,3.299728985941428883e-02,3.108921297059609110e-02,3.137792872180913267e-02,3.871295288489837172e-02,4.785074630513435484e-02,5.895596497682561998e-02,6.747429645277913668e-02,7.366123576467317746e-02,7.950406864764611448e-02
1.028045207310125837e-02,1.152007701914299805e-02,1.019724383299200343e-02,8.456296706740248220e-03,8.903172824845081990e-03,1.233852378649544571e-02,1.917741554218368658e-02,2.260825674479469832e-02,2.483390380688269700e-02,2.481419946950539843e-02,2.431406379288528902e-02,2.333349677702234448e-02,1.949586961363837870e-02,1.476071414127510043e-02,8.430424828500902162e-03,1.004493329078691606e-02,1.863536175068700174e-02,1.856961509858579690e-02,1.582652718490961535e-02,7.933798926537692642e-03,9.577638114322628918e-03,1.856573039282646484e-02,2.304355132472132861e-02,2.688881538844453342e-02,3.019879946873903903e-02,3.415096447983381051e-02,3.853590359646780206e-02,3.743382347258121523e-02,3.544160308797127124e-02,3.207546607163404978e-02,3.229289631981421826e-02,3.461613413580372917e-02,6.185461369105968443e-02,8.836121146453868036e-02,1.118757630348216486e-01,1.294498770480834171e-01,1.438179971286354941e-01,1.310231749521484912e-01,1.153050292100006868e-01,9.417332130922059785e-02,7.950411378252014716e-02,6.778634527034051172e-02,5.885025219719586254e-02,4.942102654949538654e-02,3.919777387496709009e-02,3.101590433222507423e-02,2.383158637741491712e-02,1.966369629825875931e-02,1.724937439145842605e-02,1.730100772703352732e-02,2.045822788913014695e-02,2.447117827909082305e-02,2.739411473896207275e-02,2.875762854560004814e-02,2.820011444608090667e-02,2.640881892309963896e-02,2.390442337591812405e-02,1.893328807291394522e-02,1.323430021712449639e-02,6.748444736702403218e-03,8.849636669514850812e-03,1.295214928736872217e-02,1.791978401179209618e-02,2.097746672822425190e-02,2.222190386744961332e-02,2.241636722041873142e-02,2.108480066687009463e-02,1.439267876224245915e-02,1.029737238771346111e-02,8.366078954933429956e-03,1.527685991795752797e-02,2.213023439483019494e-02,2.519909255112080110e-02,2.604280651721607720e-02,2.526141517586520668e-02,2.088461867723005391e-02,1.606166154434150381e-02,1.084644674330619701e-02,6.222140507032484710e-03,1.975009950393943458e-03,4.008426527870046115e-03,6.292806914116558237e-03,8.464233705960048926e-03,8.506138123460186412e-03,7.364974555213967509e-03,9.005539393007641960e-03,1.032315602448785966e-02,1.091462286627666728e-02,9.542402216263633913e-03,7.273458484395403136e-03,7.388172719354844931e-03,8.811818461502526206e-03,1.252609434122958082e-02,1.664739265294806758e-02,2.082606353212947126e-02,2.298511246225294624e-02,2.544312807461527465e-02,2.835694535006324374e-02,3.006300438240959438e-02,3.087886920662787776e-02,2.663587761359848677e-02,2.316880342887511421e-02,2.073628578855951990e-02,1.960930026257893394e-02,1.839942123724024742e-02,1.366205329600574461e-02,1.376529584903731646e-02,1.952728024747874686e-02,2.522434860480857188e-02,2.977781890283554000e-02,2.790720545831311405e-02,2.495518763678850407e-02,2.089330742834033180e-02,2.622996807731258623e-02,3.422017867423528259e-02,4.595496212639543082e-02,5.518267889412877686e-02,6.215094050182363994e-02,6.921918373575823569e-02
7.410460162817168392e-03,1.004376874703493717e-02,1.087434236852603819e-02,1.101943654410540187e-02,9.923208989485454712e-03,1.167223802183083026e-02,1.666169816710889179e-02,1.993090959192436035e-02,2.239170280386398870e-02,2.263534325477448150e-02,2.232687423006851635e-02,2.146629572974607589e-02,1.889243336512612392e-02,1.499804503463308090e-02,6.775090297629460245e-03,7.604503215885061000e-03,1.638233651436848265e-02,1.743378591126125421e-02,1.596171038780475754e-02,9.421018652140695365e-03,1.102892900749121927e-02,1.891219959385332869e-02,2.464358008272309053e-02,2.998531875250107226e-02,3.481264529216696046e-02,3.676971478233796720e-02,3.679248060871891102e-02,3.370741783874152409e-02,3.115528313542651265e-02,3.041771786371977315e-02,2.554983565694848510e-02,1.825485999348965688e-02,4.154540879369238160e-02,6.596093119102630631e-02,9.103936704143093805e-02,1.137245891295032563e-01,1.350090597123000113e-01,1.286492234497112475e-01,1.182889687097615355e-01,1.005205316043276953e-01,8.746899041253494711e-02,7.663213080646427700e-02,6.931703072720650505e-02,6.110632940545653036e-02,5.145355828647279334e-02,4.250894114676918162e-02,3.395124763940039064e-02,2.697131070339104167e-02,2.103620461777458081e-02,1.657039191552325125e-02,1.624369400143167719e-02,1.761357042277307550e-02,2.232669957464583632e-02,2.580040180613761905e-02,2.774727377339175627e-02,2.841221721753801541e-02,2.834617400061549553e-02,2.578009106154022234e-02,2.153496383991912108e-02,1.547465361014031121e-02,9.275121929459303680e-03,5.051780967022208475e-03,1.070309344192525713e-02,1.539648494389940850e-02,1.918045780068806938e-02,2.214326784708045559e-02,2.369719082320139933e-02,2.020404050802323756e-02,1.369822236448749696e-02,4.681847697320589557e-03,8.207361440295202898e-03,1.348343843888350629e-02,1.939629107402935163e-02,2.337615911865727203e-02,2.594429684436736286e-02,2.431774076602415818e-02,2.169180848480171953e-02,1.728848256683900020e-02,1.280170831599079274e-02,8.261669171811484441e-03,3.914721532789751900e-03,1.691908657415695447e-03,4.434606922203650041e-03,5.284661289077785540e-03,5.083246823777563990e-03,7.412681484244072749e-03,9.347680735490606491e-03,1.041882089403129569e-02,9.749992282420809689e-03,8.257599305585318350e-03,7.417480120890940221e-03,7.655704991938168044e-03,9.781031960533200648e-03,1.296169617918474862e-02,1.650617130034518973e-02,1.873885854266963552e-02,2.148258024400370378e-02,2.500542005497564252e-02,2.830152948035143112e-02,3.102202245924891647e-02,2.836215148002626044e-02,2.622136421889738334e-02,2.477268858189340603e-02,2.477383310772302005e-02,2.449658423186568817e-02,1.889409595918697254e-02,1.429188177189298289e-02,1.085900207878165956e-02,1.537544615792376008e-02,2.113542543128325846e-02,2.302413656646028206e-02,2.088557279650301440e-02,1.461375320285471235e-02,1.554784695488114349e-02,1.954038490723236654e-02,3.101169500609829086e-02,4.054829222192420785e-02,4.834125930859110853e-02,5.634988756419252731e-02
4.278779223680770870e-03,7.304514655945910234e-03,9.914044895932085794e-03,1.208356942294951455e-02,1.196462433701403656e-02,1.326642401373639632e-02,1.618629411459681852e-02,1.863215293284218449e-02,2.061460736389788412e-02,2.068262887616258844e-02,2.030151273745766510e-02,1.947125894778308983e-02,1.751496697126892627e-02,1.429833949558220046e-02,6.545283027578392525e-03,7.356827906283803890e-03,1.568851055283165818e-02,1.695861941846872611e-02,1.597481543980812380e-02,1.054373480381712302e-02,1.232273179515233803e-02,1.965431730408392919e-02,2.635471581968260035e-02,3.279270693089716276e-02,3.864305186055222441e-02,3.938101389081221509e-02,3.667367440191462297e-02,3.029296524592105938e-02,2.612945143841804638e-02,2.807893164013927634e-02,2.135245124402216851e-02,9.527725960515209813e-03,2.645998338057581334e-02,4.635694960067147236e-02,7.096360709492342822e-02,9.595687029562138814e-02,1.209810098445341098e-01,1.205739855673552685e-01,1.157076459110275013e-01,1.025833148118307503e-01,9.186940609099654431e-02,8.236350692146975072e-02,7.653851303328268463e-02,6.976905706593128365e-02,6.147885707280631440e-02,5.303517254485176635e-02,4.458743195714897495e-02,3.683519970001067345e-02,2.969871473801535475e-02,2.342812440981503416e-02,1.829263842420104577e-02,1.433550878869191587e-02,1.744563281533344223e-02,2.080517953482147187e-02,2.447198609332322181e-02,2.720751715937579779e-02,2.939546475934268904e-02,2.966242062439765348e-02,2.805349874615733000e-02,2.441660092921923986e-02,1.753514785118648334e-02,1.056882979723183444e-02,6.580591069068110824e-03,7.218232376977097749e-03,1.224753194698066303e-02,1.753465365050971975e-02,2.186113623564146791e-02,2.220555542399458085e-02,1.924861352501712822e-02,1.354053738659759601e-02,6.732975857278369371e-03,3.246196645335539151e-03,1.109139931434397625e-02,1.769790783708530962e-02,2.339975209569866710e-02,2.499022347211246609e-02,2.516377938322848090e-02,2.238975646784087392e-02,1.907626043192431689e-02,1.541841985098929210e-02,1.109181453524228297e-02,6.696297840300951577e-03,2.213757939714919385e-03,8.794536834531574421e-04,1.294169229593795326e-03,4.558597687520749703e-03,7.415736942940058529e-03,9.374584065453394482e-03,9.683892574451048729e-03,9.189564941861327538e-03,8.162271170025950373e-03,7.639186232089341735e-03,7.998466753475583224e-03,9.876744607993089703e-03,1.234027422726540965e-02,1.403990947226600380e-02,1.635768858879091056e-02,1.961788377173837722e-02,2.404458233325815208e-02,2.838722276570396219e-02,2.737883119957573719e-02,2.665571222681348620e-02,2.631295671187248303e-02,2.744453874983335262e-02,2.841718419926156369e-02,2.491266975110523890e-02,1.913087881227990006e-02,1.068691958154620834e-02,9.786889296850138226e-03,1.150663874853797772e-02,1.775235639092993117e-02,1.916138079679748779e-02,1.560643056517896192e-02,9.356553267259698839e-03,5.653436642620621178e-03,1.576097014044904390e-02,2.507838899853572640e-02,3.368372923068275321e-02,4.239762895250027974e-02
