2.567894928851009034e-02,4.136151045462251041e-02,5.764630356011048173e-02,5.875168546727293356e-02,5.214181500556153148e-02,3.039021892410820325e-02,1.844798764867910251e-02,2.416261302409412892e-02,2.968406266033112723e-02,3.438724389087870897e-02,2.363463826903801704e-02,1.544677143588586363e-02,1.127699537167888358e-02,1.930801646671347419e-02,3.057277872261022003e-02,2.771922947856968883e-02,2.006484362624316384e-02,5.837004571801641430e-03,1.179050696421291358e-02,2.271480674194377436e-02,2.407955243951420687e-02,2.095275328154738020e-02,1.243610029693580955e-02,1.092816291606553761e-02,1.245727656746985559e-02,2.161015086540033284e-02,2.389362765660932308e-02,1.894133907407145184e-02,1.522424775045104137e-02,1.412279149358606350e-02,2.414435094743654781e-02,2.961331133730882997e-02,3.087111759300105451e-02,2.340017260169656443e-02,1.474168713270673607e-02,6.810182139254163450e-03,7.413655139451989784e-03,1.494552204037804394e-02,1.560991887691098000e-02,1.405415699311819006e-02,7.995696570775428710e-03,6.202826960465110048e-03,7.443266372044649026e-03,1.061781197100954317e-02,1.255053035388471218e-02,1.077496976310804953e-02,8.898578353550087514e-03,6.959565698643735768e-03,9.548966841006071085e-03,1.158912244436551345e-02,1.196092065648041505e-02,1.069900641882164279e-02,8.554887458285075422e-03,8.836365353494406161e-03,9.103849911893198768e-03,9.312788606346329712e-03,7.077025648259975890e-03,3.872653109699285019e-03,7.127700222794516177e-03,1.223035422173021289e-02,2.047718134218390676e-02,2.564681970343928030e-02,2.918428485272411485e-02,2.625639803509172837e-02,2.208365762811120153e-02,1.606371512080732519e-02,1.659837263261702833e-02,1.956026704797960217e-02,2.456588695579076803e-02,2.813922485203960294e-02,2.985273386760298533e-02,3.514253841351122620e-02,4.328140373727425161e-02,6.446394805970918906e-02,8.994766353452277041e-02,1.203299350439892001e-01,1.486115833222265703e-01,1.710591245459016640e-01,1.645450357512763806e-01,1.510275996020663813e-01,1.305068160982714720e-01,1.053959044022682590e-01,8.562513280209871347e-02,9.252482834620998076e-02,8.914006464962256904e-02,7.672504405876280631e-02,6.337701060262129760e-02,4.957466825272537764e-02,3.463234011939022444e-02,2.593398997194003644e-02,2.204422057224018211e-02,3.162977558924176535e-02,4.116139639558052954e-02,4.656048732965551579e-02,4.621898363522592562e-02,4.200881834332585718e-02,3.278900260412342255e-02,2.618331514019325151e-02,2.689030791661165334e-02,3.085086552658783052e-02,3.672331175009804771e-02,3.716107618427529069e-02,3.477568686004629817e-02,2.665123558433701856e-02,2.549196871099121409e-02,2.790794726093120265e-02,3.405209218924851872e-02,3.581343863332067667e-02,2.945849158804978926e-02,2.145108074978812479e-02,1.335622377865973084e-02,2.100862721870644725e-02,2.522521821290148528e-02,2.390956882818276452e-02,2.184370281771875338e-02,1.945006138608706275e-02,1.645264552978311506e-02,1.308167354457004383e-02,9.185388253078605875e-03
2.442559597742646055e-02,3.887241499473774453e-02,5.499889277596660409e-02,5.698085000009553425e-02,5.175531672956038692e-02,3.103392022689192842e-02,1.901920428126147727e-02,2.267651333829988347e-02,2.840798438694327327e-02,3.428653872287161508e-02,2.470161538909216442e-02,1.621774499274766454e-02,9.458857531717738618e-03,1.733554380176712331e-02,2.937725885001531839e-02,2.786716085447967992e-02,2.099337609614219599e-02,6.775466385660318738e-03,1.163254239405091262e-02,2.140430219235784498e-02,2.388441123408874961e-02,2.171804290251595076e-02,1.397590172297864634e-02,1.085344693756748295e-02,1.059884454879614878e-02,2.056548930972173367e-02,2.373938903615428753e-02,1.975826399292062580e-02,1.524382267606915441e-02,1.323246773457349180e-02,2.350444104923290686e-02,2.960430221753308083e-02,3.184495965045072707e-02,2.497076378285227258e-02,1.623892430328442021e-02,5.911720375434136553e-03,5.943224849814733764e-03,1.438356320365364108e-02,1.599524673488884538e-02,1.523364742197150581e-02,9.470915525079653258e-03,6.832468761808238415e-03,6.415735871333693233e-03,1.027736935004134808e-02,1.297565872907437655e-02,1.169408356145026397e-02,9.231428717667232789e-03,6.035261232901279090e-03,8.753658050706413993e-03,1.125377303589005645e-02,1.271106723561575731e-02,1.188328849505100766e-02,9.821570366729388130e-03,8.433426328035242142e-03,7.696021688313802595e-03,8.226431842864152799e-03,7.102259675102678277e-03,5.293867260791569607e-03,6.782406241327761966e-03,1.047454707359157799e-02,1.791667702195338593e-02,2.302145860931190807e-02,2.681184616621483732e-02,2.448879711446224836e-02,2.062087962720507775e-02,1.446057671952146774e-02,1.436423150986324178e-02,1.663931023655782632e-02,2.206390222043425053e-02,2.601177147570937070e-02,2.804210524757678666e-02,3.334562437237063859e-02,4.136242854755135812e-02,6.206839809393476654e-02,8.741880597015756760e-02,1.180587130553635011e-01,1.475181054342774023e-01,1.714367558914186296e-01,1.668265677531988456e-01,1.548732883066583632e-01,1.355769175517969605e-01,1.094966560395666116e-01,8.840096357049817555e-02,9.418880405196172756e-02,9.125000059454124735e-02,8.064877806883205547e-02,6.819618433222576770e-02,5.517810842973959462e-02,4.108384849099745023e-02,2.948414152459349208e-02,1.980552707711625074e-02,2.870329956239547550e-02,3.857317369311553251e-02,4.583184883663037751e-02,4.764442035337836112e-02,4.578679159991382724e-02,3.677124254422621530e-02,2.935438409501678336e-02,2.704496393303790908e-02,2.987466794886286386e-02,3.572426967741810372e-02,3.784664802505877113e-02,3.673266339611623577e-02,2.889659943911869477e-02,2.597610046938491832e-02,2.560774337424276750e-02,3.230302408506226242e-02,3.463197940607010139e-02,2.887514696816737003e-02,2.067382743186658295e-02,1.219331841923812498e-02,2.331188683548982704e-02,2.817812395953566557e-02,2.297704798596163570e-02,2.086669146489682561e-02,1.980481249480942410e-02,1.730588435644453069e-02,1.431978266638861408e-02,1.064859316926725780e-02
2.336708751769408024e-02,3.658674981273817711e-02,5.230213375920935576e-02,5.503836253682596602e-02,5.114209377279253094e-02,3.159548208104225736e-02,1.957680547718698011e-02,2.110841203154304596e-02,2.698913450681883486e-02,3.399073799898198744e-02,2.563041710866232822e-02,1.691983894834108923e-02,7.660524398350564493e-03,1.530112267000205070e-02,2.798849553429770542e-02,2.783608422894940163e-02,2.199445267719095029e-02,8.362965711116734924e-03,1.181283584320541244e-02,1.991429116078547584e-02,2.350541392627911869e-02,2.233821855966556039e-02,1.546104143452326114e-02,1.069634529191942907e-02,8.598581332442572708e-03,1.930792703471841815e-02,2.336418414366258842e-02,2.041252126763052829e-02,1.518918652305578480e-02,1.231569686687645181e-02,2.266562800551357934e-02,2.932160286139384037e-02,3.256066815572376816e-02,2.640486208526574355e-02,1.791760206852624840e-02,6.197139209734740806e-03,5.490853173548850170e-03,1.372548714630194601e-02,1.618676102239491668e-02,1.627146423348686810e-02,1.095773817388555164e-02,7.453570882991955235e-03,5.236200938735066125e-03,9.738506914973892731e-03,1.321185402780727589e-02,1.256291577761129395e-02,9.754750894420681148e-03,5.605592628633370572e-03,8.072744831986963451e-03,1.074391811552312566e-02,1.326891637096582269e-02,1.305842889717604739e-02,1.137077912960068882e-02,8.427480710383988827e-03,6.636022162457125978e-03,7.120039883235338915e-03,7.015279837381482864e-03,6.657283031010391254e-03,7.106518621304671809e-03,9.635841646187859322e-03,1.570496258607335591e-02,2.044499376987611583e-02,2.430619639847924132e-02,2.257373962139623547e-02,1.908557746037897740e-02,1.299217505223319163e-02,1.217459377904300810e-02,1.358897792028306191e-02,1.943110105249844927e-02,2.376063173185303384e-02,2.612604982316442739e-02,3.145200444127240619e-02,3.934937995289704282e-02,5.955735012109214521e-02,8.470367282076847470e-02,1.154742303479645155e-01,1.459656982703799177e-01,1.712124755032039536e-01,1.684012341040829752e-01,1.579738273078695188e-01,1.399302551145633067e-01,1.132570582613494081e-01,9.112858887159233645e-02,9.545653732292649907e-02,9.276930169021269101e-02,8.392239222760281003e-02,7.244915239210210356e-02,6.038983425564276031e-02,4.756658687618891407e-02,3.397052445659594355e-02,1.977930562678029830e-02,2.659957169990628811e-02,3.550566813171392166e-02,4.436659571389491713e-02,4.828955139358359627e-02,4.888474339985343642e-02,4.068574084484632286e-02,3.301083510383391595e-02,2.801078779524840759e-02,2.931247442589063681e-02,3.431724182494532566e-02,3.798180288647000358e-02,3.823954711659015987e-02,3.127355278441611153e-02,2.684257490292984993e-02,2.376710815013127406e-02,3.035356093293005431e-02,3.288498889933672009e-02,2.790711165020231740e-02,2.032003201427927744e-02,1.247175223580659562e-02,2.645095897617355529e-02,3.141242669724148007e-02,2.185380616689521632e-02,1.945150387451651669e-02,1.957687254793570586e-02,1.767491236663362719e-02,1.523475929425547291e-02,1.203777246880164201e-02
2.251008388103805172e-02,3.456087912460597406e-02,4.959080110148937626e-02,5.294007073805041819e-02,5.030029968227055226e-02,3.204885805800411491e-02,2.009134014567370147e-02,1.946288491482844538e-02,2.543447266722341504e-02,3.349578721567413736e-02,2.640764668675602347e-02,1.760926012412159999e-02,6.131488108664843659e-03,1.337687930824102769e-02,2.641573005202851876e-02,2.762242416490647695e-02,2.291866031392717634e-02,1.012211555858912732e-02,1.203773058371508491e-02,1.825229729137190990e-02,2.293968596440563307e-02,2.280030050289721943e-02,1.686878607993810494e-02,1.045297717272752197e-02,6.473555277245613380e-03,1.784480320880928172e-02,2.276570353007324049e-02,2.089223770182132428e-02,1.508338391090312085e-02,1.142557333326454407e-02,2.164565903103098793e-02,2.875774276977515267e-02,3.299492469642348325e-02,2.765994990520132674e-02,1.982530626947505772e-02,8.222861609374578287e-03,6.579754127552002105e-03,1.302128506103763898e-02,1.617250344218935931e-02,1.713794810378807543e-02,1.239794086998240868e-02,8.027856005178610893e-03,3.920827047220679616e-03,9.002709816349371147e-03,1.323502011112181152e-02,1.331689883795169477e-02,1.047087460239276915e-02,5.806468527034431247e-03,7.570585604066276501e-03,1.006280138045509073e-02,1.361928672831914586e-02,1.414052097188078089e-02,1.302271961911904280e-02,8.947139617115214619e-03,6.190981316587232039e-03,6.060839669585666584e-03,6.784197749951920500e-03,7.882178290115048405e-03,8.092255843723163838e-03,9.787343738653052350e-03,1.400955449513062445e-02,1.805144280485815322e-02,2.171961994716333291e-02,2.052897293782833185e-02,1.749593108638340666e-02,1.172901301761382527e-02,1.009122246597522754e-02,1.044453326644770481e-02,1.670572948645695360e-02,2.142394191243541385e-02,2.413857836706040372e-02,2.948608703859041669e-02,3.725745280245663926e-02,5.695057357520873220e-02,8.182652968457146403e-02,1.126051593717402044e-01,1.439906875767828220e-01,1.704253917190958756e-01,1.692804630508294439e-01,1.603145889818776149e-01,1.435277695122400277e-01,1.166156875670513321e-01,9.373885221571182091e-02,9.631255919241485386e-02,9.368357833410953517e-02,8.648638376701622832e-02,7.604853631593842811e-02,6.507527579169111731e-02,5.382205814111119813e-02,3.937190499430295865e-02,2.245974405154807507e-02,2.572199421886185722e-02,3.221132477197873045e-02,4.226754036616151705e-02,4.814944183071812045e-02,5.121821855574388432e-02,4.430890573082765793e-02,3.692133975718583927e-02,2.988646515223892380e-02,2.935898054748831837e-02,3.265542614903894914e-02,3.757159151829418675e-02,3.914635201764713607e-02,3.346840380905435897e-02,2.798540937558120084e-02,2.267372347104111216e-02,2.836584803396962479e-02,3.061620111695519467e-02,2.649290331115747646e-02,2.029293520399064882e-02,1.408844665845888910e-02,3.027295025371377554e-02,3.488379363480798717e-02,2.085908243377832330e-02,1.784703026174015369e-02,1.879507082307823804e-02,1.753760415197152395e-02,1.575028619552477568e-02,1.321786486906865142e-02
2.186309726130435116e-02,3.284579875508367858e-02,4.690211427094140295e-02,5.070562755587657011e-02,4.923012168990233139e-02,3.237305789905496611e-02,2.053939544878775891e-02,1.774785541156501806e-02,2.375299208236897330e-02,3.279895865030046931e-02,2.702096694722518760e-02,1.857856194906493466e-02,5.961909455271439950e-03,1.229425148557650171e-02,2.467165553893676741e-02,2.722458990397542966e-02,2.371561368180498050e-02,1.190648296330171045e-02,1.222147429174391155e-02,1.642790221771524631e-02,2.218607196827373368e-02,2.309295284485211874e-02,1.817828707265423463e-02,1.012289764642681188e-02,4.245715069200345707e-03,1.618716057500077868e-02,2.194412909128476419e-02,2.118678184527792233e-02,1.495804460838151551e-02,1.062994882000001425e-02,2.046949109208659121e-02,2.790902555186557110e-02,3.312855278525980024e-02,2.870087021856164433e-02,2.162692656247018619e-02,1.027147892878089303e-02,7.653736796342005752e-03,1.212895560021249111e-02,1.594361279545698784e-02,1.780854106366670103e-02,1.375029034155976146e-02,8.540182769239085953e-03,2.510976992322060293e-03,8.085247303419555373e-03,1.302816538371101042e-02,1.390727729200339630e-02,1.131160566518675872e-02,6.557910579723406561e-03,7.220782637295225515e-03,9.217533962811986364e-03,1.375107021951722623e-02,1.507017954642787816e-02,1.465349833124936912e-02,1.001287110742724376e-02,6.455581048838063968e-03,5.077451660624535297e-03,6.395545655258925988e-03,8.919013573885621257e-03,9.460094442382747243e-03,1.065637649353983959e-02,1.296765003097795702e-02,1.602005952773637859e-02,1.912964577025210236e-02,1.838420340101359907e-02,1.587325507599805438e-02,1.074252371982925558e-02,8.189151533032915098e-03,7.270208508133632619e-03,1.395494774520324860e-02,1.906518108529254782e-02,2.213090676810882881e-02,2.748496994198615720e-02,3.511127645945015530e-02,5.427568520592331025e-02,7.881778732573752055e-02,1.094844846763006752e-01,1.416350309895662019e-01,1.691223010067123556e-01,1.694854542234161543e-01,1.618925076406778629e-01,1.463434612584971484e-01,1.195183067941473359e-01,9.616491304842389454e-02,9.674903546296660661e-02,9.399005595598532159e-02,8.829566988376327807e-02,7.892130779003501961e-02,6.912258185506270358e-02,5.965406313161020213e-02,4.531367829986732848e-02,2.722139658012992514e-02,2.602446941022009200e-02,2.908284521539716838e-02,3.970694575934313741e-02,4.725457616935989369e-02,5.272893322825025070e-02,4.747045962607881336e-02,4.087775281899094781e-02,3.261490224012229128e-02,3.010556109059821239e-02,3.097714816244188235e-02,3.668539649558306276e-02,3.935267185614091390e-02,3.522719591765973574e-02,2.928295531742122759e-02,2.248204722408651823e-02,2.647465630415050952e-02,2.790734622861296838e-02,2.459944512418363663e-02,2.031553116004268522e-02,1.648615631846067978e-02,3.444373941613840945e-02,3.860842906437648298e-02,2.056422248046495954e-02,1.650430169110152570e-02,1.755785609238418726e-02,1.691319472364120197e-02,1.581588460739786692e-02,1.408203718998218834e-02
2.142944013143627605e-02,3.147907341095006195e-02,4.427437500610324067e-02,4.835909505528282470e-02,4.793399714623292063e-02,3.255122054955215255e-02,2.090252788891506369e-02,1.597518631315672163e-02,2.195639106764671333e-02,3.189895088786264682e-02,2.745908046776733558e-02,1.995614123891681357e-02,7.654394209683038422e-03,1.239669183470164249e-02,2.277327177205988595e-02,2.664341071143826872e-02,2.436195544115100919e-02,1.365754809916738637e-02,1.233417370475503247e-02,1.445277965665841061e-02,2.124526386435431763e-02,2.320641614307984366e-02,1.936997010704073416e-02,9.780166857468512720e-03,2.077248053494086186e-03,1.439583463625528081e-02,2.090240453665642012e-02,2.128698353163816295e-02,1.485095954210520833e-02,1.000693994978173705e-02,1.916791298937576063e-02,2.677562355938255950e-02,3.294656634502096670e-02,2.949810668156556057e-02,2.327824248781837010e-02,1.228302565451908947e-02,8.671421918304906412e-03,1.105357469619526641e-02,1.549489527774956799e-02,1.826218427338318837e-02,1.498096639186536141e-02,9.089659545543931143e-03,1.342289435362228889e-03,7.139072161863690633e-03,1.258069439685032334e-02,1.429693422642595857e-02,1.216467903261995651e-02,7.642305876924243568e-03,6.939919583250254639e-03,8.219214736840719376e-03,1.365743396079661075e-02,1.580530169539836466e-02,1.617637962574878727e-02,1.144455092144388078e-02,7.239471784165160684e-03,4.133054062138739188e-03,5.844576882539236767e-03,9.732545130586743240e-03,1.092325742292190975e-02,1.195349930079656585e-02,1.271065994704538051e-02,1.454549277286552866e-02,1.665176933393866174e-02,1.618630758351546559e-02,1.423510205822971567e-02,1.007924447992192968e-02,6.583695460903519862e-03,4.252035328975011658e-03,1.131995677992124992e-02,1.678809874274639347e-02,2.017891510159333310e-02,2.550297154268795982e-02,3.294790199572858458e-02,5.157028289438991830e-02,7.571543037484743111e-02,1.061503953512389076e-01,1.389464287501138706e-01,1.673571350017920289e-01,1.690469098885665489e-01,1.627161424824070113e-01,1.483648327833130276e-01,1.219195721385076675e-01,9.834469775560071569e-02,9.676601159364858762e-02,9.369741988264768118e-02,8.932061842126233497e-02,8.100976948828483848e-02,7.243824860944469979e-02,6.490087646965717050e-02,5.133286428107767391e-02,3.312056607791048074e-02,2.741406039218096877e-02,2.668462440287107384e-02,3.694355767350310238e-02,4.567915051565771267e-02,5.338814437340341779e-02,5.004252171012867068e-02,4.468025801071835029e-02,3.599176325009365712e-02,3.155482092031523800e-02,2.961621352412715374e-02,3.546622725094679407e-02,3.881476046021488380e-02,3.635791421055722256e-02,3.056018659656464104e-02,2.311859462534155557e-02,2.475450241601984125e-02,2.488518724892865505e-02,2.222842216004206756e-02,2.013936228894491406e-02,1.913114599629702622e-02,3.863271383664667463e-02,4.263028014020812245e-02,2.166377617266877775e-02,1.600488501736440500e-02,1.606719371203236407e-02,1.588048799669193600e-02,1.541282236033225325e-02,1.455005683503924480e-02
2.119993296926437135e-02,3.047683153828620317e-02,4.174572789880654639e-02,4.592965199122598513e-02,4.641687594775249087e-02,3.256996250029806084e-02,2.116681253773253571e-02,1.416243684796708591e-02,2.006050873230144291e-02,3.079598733629681367e-02,2.771178152927972205e-02,2.135462475258325873e-02,9.869844790055723113e-03,1.280812635924046330e-02,2.074329863368200993e-02,2.588278065658792745e-02,2.484261886864091995e-02,1.534109863198729329e-02,1.236199053792082572e-02,1.234071400111467001e-02,2.011992014996744071e-02,2.313256446407261843e-02,2.042533457648047432e-02,1.141244275024952751e-02,3.754673563549696096e-03,1.376303143832086247e-02,1.964659430147333574e-02,2.118537308572070871e-02,1.479705119629787236e-02,9.628659199537070376e-03,1.777232355681991963e-02,2.536168083836976700e-02,3.243830407486640588e-02,3.002689853783033214e-02,2.474409665906367184e-02,1.422563986414861203e-02,9.618061581296435264e-03,9.808725855295418600e-03,1.482577457688424860e-02,1.848093992531573554e-02,1.606012395199091572e-02,1.036970081817589241e-02,2.354223703567880511e-03,7.056233612164049783e-03,1.188816246168736095e-02,1.445782653353812862e-02,1.293194668610193540e-02,8.862518509845353221e-03,6.655675527604905731e-03,7.083182764134748899e-03,1.333613427465659036e-02,1.631563827923767501e-02,1.752748063061063816e-02,1.302117326847028120e-02,8.287319717584062939e-03,3.180435177408273521e-03,5.134255508994029979e-03,1.029876327766501148e-02,1.230171468119909198e-02,1.348465972805554941e-02,1.327215536091661333e-02,1.376026833723856778e-02,1.445738450141175607e-02,1.400668470088418244e-02,1.258748384371390083e-02,9.731152386363992740e-03,5.887207143384734845e-03,2.697147851668866940e-03,9.395246997765204985e-03,1.475975634553535962e-02,1.839258938801621029e-02,2.361671551372202665e-02,3.082020955152080244e-02,4.888410925770123733e-02,7.256633672678572400e-02,1.026472152591770548e-01,1.359783989040742880e-01,1.651902708322696145e-01,1.680046542036140733e-01,1.628056321387929550e-01,1.495932046378058156e-01,1.237844611416904217e-01,1.002229365716359455e-01,9.637129410606186386e-02,9.282537702959284265e-02,8.954790175819150877e-02,8.227270725062499346e-02,7.494627450017288250e-02,6.942479606861126640e-02,5.707649544591599650e-02,3.947075704384120365e-02,2.996040033840342842e-02,2.565416966569089921e-02,3.430633910200630438e-02,4.355344887161066714e-02,5.320149669190955138e-02,5.193386389791294910e-02,4.814408489581916556e-02,3.974275288259791761e-02,3.367439624538330623e-02,2.897696328272949401e-02,3.412788523218514281e-02,3.755568796664656567e-02,3.672832924542789729e-02,3.159309794461575421e-02,2.430236541180088097e-02,2.323400559089902617e-02,2.173096854620672203e-02,1.942297367968012084e-02,1.961705377612425749e-02,2.167422617705684271e-02,4.257796601016649446e-02,4.687492672989849313e-02,2.443215836876692915e-02,1.671780303579485302e-02,1.467790562805036149e-02,1.460494773598374103e-02,1.456510809222363173e-02,1.457184098514455184e-02
2.114839743730424423e-02,2.982927242290039221e-02,3.935384754523439665e-02,4.345236819093101915e-02,4.468654715134384031e-02,3.241898280151916251e-02,2.132346028098820734e-02,1.233761305318588179e-02,1.808881528787687626e-02,2.949191096785619068e-02,2.777004880658795818e-02,2.263536843294257361e-02,1.215393952657294746e-02,1.324325493548842748e-02,1.861266136045940794e-02,2.495070129577961135e-02,2.514627278921943015e-02,1.693138749300734935e-02,1.229721284781015896e-02,1.010761190512514743e-02,1.881477743502643976e-02,2.286502052362662796e-02,2.132695668266526567e-02,1.318536375435824977e-02,5.823890393480880660e-03,1.312895891072963367e-02,1.818643647081171280e-02,2.087645155601153962e-02,1.481354152443789540e-02,9.534602899701665260e-03,1.630612663756283304e-02,2.367540848895847982e-02,3.159761659537337064e-02,3.026685617187786781e-02,2.599320453388568805e-02,1.606982369645956754e-02,1.048349699171853208e-02,8.417837759392509875e-03,1.394222194091906258e-02,1.845005909992412929e-02,1.696069110883814679e-02,1.183746327098460227e-02,4.130157319874154694e-03,7.191593039756200532e-03,1.095249652109273400e-02,1.436967471584754338e-02,1.354437804472683783e-02,1.008428119374653667e-02,6.325633812599796256e-03,5.829891080388098328e-03,1.279001773588527360e-02,1.657985492271837891e-02,1.865773579647275748e-02,1.458622512620090517e-02,9.494375598724713247e-03,2.479930512168770484e-03,4.480799009363832346e-03,1.060259033558052372e-02,1.349100003445870971e-02,1.509110672651211606e-02,1.449883812624946401e-02,1.368468105423485681e-02,1.278552165636796106e-02,1.194682827106060413e-02,1.092456803660391863e-02,9.629918284054614364e-03,7.024752075763279757e-03,4.657208408523901694e-03,9.110250306060026573e-03,1.323181503892979782e-02,1.692295419977004126e-02,2.192878310380795212e-02,2.880024792356492003e-02,4.628086884568073656e-02,6.942722673504818365e-02,9.902622950378500710e-02,1.327902333606751639e-01,1.626876618557272225e-01,1.664071224400431870e-01,1.621925267472172916e-01,1.500438747772490367e-01,1.250894412674257716e-01,1.017528512088003712e-01,9.558000138931173340e-02,9.140391560216890032e-02,8.898108603854902598e-02,8.268648997437988424e-02,7.658873053476926429e-02,7.310891901217345112e-02,6.229326427984750725e-02,4.582816707565972453e-02,3.367040403467078807e-02,2.636863134800860112e-02,3.211569322213606026e-02,4.108106888912203131e-02,5.221530819912114513e-02,5.308894585224208790e-02,5.111024889979749741e-02,4.359287775950698024e-02,3.641463346119919176e-02,2.943566988446899568e-02,3.292621872155457319e-02,3.568270536592606235e-02,3.626794374512043451e-02,3.215284809875730565e-02,2.565967815249790146e-02,2.194719431562593137e-02,1.869022712932639357e-02,1.627680929593857545e-02,1.869141060257477338e-02,2.391353784075753511e-02,4.607691042779560320e-02,5.108617376910661034e-02,2.847441374865246691e-02,1.864020551625904243e-02,1.391805709983121031e-02,1.336212132415692116e-02,1.335991338823820304e-02,1.413638522697575547e-02
2.123197501613237337e-02,2.950228408577156708e-02,3.713703574640937061e-02,4.096892805485816136e-02,4.275405770380390907e-02,3.209088395950011885e-02,2.137203199578029122e-02,1.055295923711144918e-02,1.608222082050823551e-02,2.799027311790062630e-02,2.762616212739086446e-02,2.375646904477803772e-02,1.439469735120372726e-02,1.364974267594299372e-02,1.642510143088693128e-02,2.386110961093451666e-02,2.526405536237965113e-02,1.840634640389192736e-02,1.213525881354790559e-02,7.771547819601699186e-03,1.733676677066270724e-02,2.239929726438623023e-02,2.205860160930452063e-02,1.487531702260159322e-02,7.881529245667453359e-03,1.237205193126216310e-02,1.653635039828092734e-02,2.035702602173306355e-02,1.488953640018643269e-02,9.712902035156524214e-03,1.477864749909742204e-02,2.172916080569450153e-02,3.042308436674842978e-02,3.020187485614055090e-02,2.699755406293539994e-02,1.778679700520383739e-02,1.126420077955651161e-02,6.923758641130505799e-03,1.286170819648752191e-02,1.815822137149880264e-02,1.765806767462897373e-02,1.322361212903798433e-02,5.991430824356401563e-03,7.242771399714409419e-03,9.782896549077208306e-03,1.401957094603416970e-02,1.395480368342756280e-02,1.121861475856562353e-02,5.933147540379806600e-03,4.489770011758866149e-03,1.202856168789130480e-02,1.658416122430114020e-02,1.952883700526062555e-02,1.603979364040612407e-02,1.129066676523119220e-02,4.152321198605021801e-03,5.445856908923755492e-03,1.063691385804357674e-02,1.442709491566187760e-02,1.662771499176513360e-02,1.612329269581619720e-02,1.426605275052057406e-02,1.190397843498281968e-02,1.012661967244616983e-02,9.239836322994566392e-03,9.674551973604632663e-03,8.640402431118869922e-03,7.453804073815901814e-03,9.724086484057394703e-03,1.250520901119962953e-02,1.594966124237707367e-02,2.056476424837085093e-02,2.698108987192731137e-02,4.383887134992012907e-02,6.636482419711289826e-02,9.534619443700508012e-02,1.294467144060643671e-01,1.599197290455508236e-01,1.643106916568642661e-01,1.609194800957639282e-01,1.497460943622493934e-01,1.258234002679475827e-01,1.028975590840394555e-01,9.441383590444800411e-02,8.947226840048831675e-02,8.764088636781491859e-02,8.224596968332185953e-02,7.732682889250747094e-02,7.585701892603768925e-02,6.679425933532776027e-02,5.188405578112188776e-02,3.827023452494983380e-02,2.869137057180149927e-02,3.062819106532842575e-02,3.855715533226295594e-02,5.052430344649374433e-02,5.349039257309490258e-02,5.345184371912294063e-02,4.729841596352326455e-02,3.967452305778397526e-02,3.118654238340597823e-02,3.211392197098299900e-02,3.341437916546105558e-02,3.497626778832956668e-02,3.204866124987103271e-02,2.682811004516236220e-02,2.096764748771578341e-02,1.606883567820001357e-02,1.295085858707436220e-02,1.738889642142708164e-02,2.574860824306207663e-02,4.897434723132154666e-02,5.495813771131888986e-02,3.317946872885908782e-02,2.162668753432347643e-02,1.432980713375071186e-02,1.250843408856141745e-02,1.198545849013302363e-02,1.328835430121214772e-02
2.139593601569989706e-02,2.944466166964425716e-02,3.513624003090948245e-02,3.852803414644417890e-02,4.063426695495729601e-02,3.158117767693445488e-02,2.133213765966160066e-02,8.930386311738508498e-03,1.413110465214846914e-02,2.629641449483696367e-02,2.727383367306220052e-02,2.469425805369254018e-02,1.654205725142421368e-02,1.402626516486928446e-02,1.424608172780285863e-02,2.263728829575725396e-02,2.518925249365505312e-02,1.974594636947510015e-02,1.187378956710314487e-02,5.353094437458178270e-03,1.569522131486694727e-02,2.173294896475853194e-02,2.260539754162922688e-02,1.645761593679398796e-02,9.900606900270111227e-03,1.150419110936587788e-02,1.471760577690909080e-02,1.962670852735037830e-02,1.499029986031064250e-02,1.010773816652329321e-02,1.318750723017637211e-02,1.953948449675270774e-02,2.891825435103299174e-02,2.982022825032418570e-02,2.773234029463462688e-02,1.934841210815689896e-02,1.197478680963761505e-02,5.421289737813952438e-03,1.162932307134350099e-02,1.759783673220452482e-02,1.813022239586070325e-02,1.448277764046549190e-02,7.863009031522613310e-03,7.190231912885363709e-03,8.398397148203194662e-03,1.340251297041537490e-02,1.413053031953727737e-02,1.220286545905567913e-02,5.528002730415474374e-03,3.171894168111502339e-03,1.108598284696049249e-02,1.632180103878913893e-02,2.011135316762665756e-02,1.731445958007995015e-02,1.302873850906536429e-02,5.907066678381709193e-03,6.375375325459356479e-03,1.040271170015148045e-02,1.506892949955812924e-02,1.797572098732907672e-02,1.788840103249159097e-02,1.540477770242480379e-02,1.196927652754622463e-02,8.640809604401309546e-03,7.546614636722777901e-03,9.767790957800852672e-03,1.028415498855815916e-02,1.029884957264227095e-02,1.107838702238677850e-02,1.276391181167587513e-02,1.562586792246309711e-02,1.965577049597134682e-02,2.547415862353192770e-02,4.164894662467336084e-02,6.345461576750514865e-02,9.167323287726153458e-02,1.260174311479136111e-01,1.569599392073318389e-01,1.617788116303741641e-01,1.590397763329693681e-01,1.487428333151169513e-01,1.259883512155485774e-01,1.036312485471488215e-01,9.290014932746271104e-02,8.707761260081592347e-02,8.556503318513034029e-02,8.096507627225457693e-02,7.714205204967368446e-02,7.759474248425399234e-02,7.043124810006132219e-02,5.740241598187048599e-02,4.330835535756238919e-02,3.217592803915966110e-02,3.009062784894808718e-02,3.636759999590536557e-02,4.828001654399805692e-02,5.316402655131928501e-02,5.507737517785825376e-02,5.065468516049272119e-02,4.327296263011954497e-02,3.415242717973154124e-02,3.192583914725308919e-02,3.111337788988338682e-02,3.293724844100925919e-02,3.115174536056089516e-02,2.750341666676067720e-02,2.037391239292666439e-02,1.418236339296899060e-02,9.727768603893075655e-03,1.585953663251838883e-02,2.715649798735555662e-02,5.115947453527245475e-02,5.823296292850419636e-02,3.804710598791974374e-02,2.543976280251267902e-02,1.610633922893463243e-02,1.238861605264084120e-02,1.078533081552095554e-02,1.215547393036440528e-02
2.158055319529713495e-02,2.959751075063574502e-02,3.339647439121268269e-02,3.618498773447853534e-02,3.834660526479972270e-02,3.088846482082081846e-02,2.128198930247708620e-02,7.808510650276397243e-03,1.247878841221690925e-02,2.441753682706963857e-02,2.670834769326061592e-02,2.543054520655142065e-02,1.856191513363200998e-02,1.440002014761221708e-02,1.218006659304558120e-02,2.131835826942879430e-02,2.491731456360629995e-02,2.093164241137883755e-02,1.151432130515228115e-02,2.879329048025697484e-03,1.390337009881349555e-02,2.086572164469156429e-02,2.295404578467766937e-02,1.790972939851604578e-02,1.185822992043951071e-02,1.054957610114660299e-02,1.276383326619675435e-02,1.868889000142174434e-02,1.507144309059220075e-02,1.064442213854879284e-02,1.152669268688156015e-02,1.712713809518051633e-02,2.709189524894817930e-02,2.911477490465748733e-02,2.817611695491648721e-02,2.072739814145125453e-02,1.269357661925038169e-02,4.184789368781634961e-03,1.038040669869474790e-02,1.676535873299794116e-02,1.835797875841098728e-02,1.558322647199837305e-02,9.702787208287481924e-03,7.040927157312411137e-03,6.836259648912604986e-03,1.252388421040877102e-02,1.404937762285601854e-02,1.298996853220965933e-02,6.103166415532840054e-03,3.302734238998687906e-03,1.034315035096547430e-02,1.579302767392946893e-02,2.038401405083183071e-02,1.836135627425550254e-02,1.463035392476326121e-02,7.633158299596097193e-03,7.202412635864055904e-03,9.909969345486971740e-03,1.539099073080165900e-02,1.904717131553334414e-02,1.959792106418482491e-02,1.692936465015376993e-02,1.289187605316800302e-02,7.546008668089845481e-03,5.928709114966242144e-03,9.844123118936561750e-03,1.182812043053542775e-02,1.303496496659819689e-02,1.302030357360348632e-02,1.391976393380251961e-02,1.600621821232770664e-02,1.930418177728815063e-02,2.439739875013507628e-02,3.980740413659113880e-02,6.077744040096764999e-02,8.807973405408642265e-02,1.225754984780514784e-01,1.538829909461977841e-01,1.588808820516284248e-01,1.566166529315353440e-01,1.470903035859180974e-01,1.255999109903079836e-01,1.039401630139799027e-01,9.107089376797650182e-02,8.427356897871002284e-02,8.280770761487087073e-02,7.887702768824650379e-02,7.603710674446013951e-02,7.827127770592996747e-02,7.308783448836912722e-02,6.219197575362328534e-02,4.835394469929212014e-02,3.637626371722357810e-02,3.075179401683227759e-02,3.492360675493269562e-02,4.569726200592962723e-02,5.218583771499857304e-02,5.593396619863096747e-02,5.349590275448862231e-02,4.697068836149331794e-02,3.804374609133691354e-02,3.260673572280691629e-02,2.929427822324565805e-02,3.033500933423921575e-02,2.941008874364137160e-02,2.744809783123298985e-02,2.013518040594466235e-02,1.329059322196089743e-02,7.313284262614790782e-03,1.461179328085765103e-02,2.818034607422458676e-02,5.256793838589399193e-02,6.071468394326291068e-02,4.271091354031655851e-02,2.971752749484709438e-02,1.898903266471544879e-02,1.327849989127211083e-02,1.024555548191079246e-02,1.097796970953987365e-02
2.172741885774066850e-02,2.990200816510611009e-02,3.196568634061132397e-02,3.399969329757576708e-02,3.591614304264827140e-02,3.001480432533297840e-02,2.137888617033202945e-02,7.820725027496620158e-03,1.157648176000868750e-02,2.236276398371565832e-02,2.592670497079703831e-02,2.594987103137989803e-02,2.042582304044848751e-02,1.483387875326258598e-02,1.040065740236212344e-02,1.997050424646971620e-02,2.444603059811786827e-02,2.194625658316750813e-02,1.192324054476140774e-02,2.120664894992014497e-03,1.259140379277366890e-02,1.979969578032318017e-02,2.309305147559384888e-02,1.920999867807559811e-02,1.373496375152786358e-02,9.560165966728813997e-03,1.073780041797763735e-02,1.755333015786376960e-02,1.509083273065696222e-02,1.125041599263298768e-02,9.793271647287569992e-03,1.451708705077310937e-02,2.495829022192731783e-02,2.808324670533828699e-02,2.831106474063991088e-02,2.189773041573865597e-02,1.366781553561931435e-02,3.963264675381611944e-03,9.485145855027037401e-03,1.566158054961344290e-02,1.832539093428513580e-02,1.649660843409247318e-02,1.147309321577399434e-02,6.839931011157929230e-03,5.188901934795028814e-03,1.141015545404026540e-02,1.369809414907968530e-02,1.354323732171753766e-02,7.207490839101280203e-03,4.274302584318644474e-03,9.657825550733242087e-03,1.500542541980065883e-02,2.033362681630050336e-02,1.914375573391996488e-02,1.604682197834577523e-02,9.292676472518520553e-03,7.915634727668525647e-03,9.179567125317771373e-03,1.538071404958337059e-02,1.977976047861075906e-02,2.111207448591659319e-02,1.862291835123367628e-02,1.441226338912001900e-02,7.093601566773397905e-03,4.788761689432069479e-03,9.923786633711580152e-03,1.319272949311629806e-02,1.556393423730451607e-02,1.528621011716437168e-02,1.570483591738159462e-02,1.702767728582402565e-02,1.954849856348335468e-02,2.385114531357910780e-02,3.840240823480191995e-02,5.841321814989126893e-02,8.464184547466147013e-02,1.191954613350687114e-01,1.507625407867907164e-01,1.556908124316829511e-01,1.537223645631494995e-01,1.448571971811898895e-01,1.246875327112588472e-01,1.038234132920513586e-01,8.896157459915232657e-02,8.111859456442518934e-02,7.943851481492195110e-02,7.603409541452907372e-02,7.403656231156711953e-02,7.786104498690805953e-02,7.467677639854533589e-02,6.609496373353687670e-02,5.306780820472431492e-02,4.092792994425073494e-02,3.271518831948758838e-02,3.451246116670664277e-02,4.305561333200066260e-02,5.068971277975453660e-02,5.601180272787803505e-02,5.569492883137151101e-02,5.051875499506464084e-02,4.248711624567905187e-02,3.439042435213173626e-02,2.852864055329194098e-02,2.745966285134956303e-02,2.687093005444375626e-02,2.648732119754499195e-02,2.002857256886813458e-02,1.366266619397260053e-02,7.468689918671681839e-03,1.497602869529388210e-02,2.892010808486015702e-02,5.318486791897319987e-02,6.226506773043398446e-02,4.689555225118272747e-02,3.407753948544931660e-02,2.254272311051093783e-02,1.525088408750519681e-02,1.073151800363044903e-02,1.011094199040875330e-02
2.178396265728855391e-02,3.030340599147705524e-02,3.088950351976612815e-02,3.203232769714870615e-02,3.337513339501922693e-02,2.896631628214426518e-02,2.159982704287703378e-02,8.909527976103413793e-03,1.139003119922886442e-02,2.014319227007882462e-02,2.492776988349154621e-02,2.623882382678910732e-02,2.210802402023967494e-02,1.543780732805050127e-02,9.179450015610620892e-03,1.869777464686820170e-02,2.377581075334582114e-02,2.277406718743225575e-02,1.374421880542559676e-02,4.397204463208709280e-03,1.223229781800809490e-02,1.853941615919139224e-02,2.301296448403517686e-02,2.033772297128431591e-02,1.552230624722972761e-02,8.676203375618604316e-03,8.793397027826192411e-03,1.624526301845641632e-02,1.501366940375968920e-02,1.186419970876332296e-02,7.990132228882191462e-03,1.173850145466445727e-02,2.253762463318545461e-02,2.672862264549171266e-02,2.812332474601609428e-02,2.283506613490266304e-02,1.502221552544728486e-02,5.159990234984748389e-03,9.147071214441374054e-03,1.429189594818262680e-02,1.802015768141288291e-02,1.719692861734580663e-02,1.313708387520055344e-02,6.823491874277087463e-03,3.834564926065012810e-03,1.017371858175609295e-02,1.307228062775799005e-02,1.383405420037391552e-02,8.195094349227731792e-03,5.201646969292843779e-03,8.821714016062780911e-03,1.397465955148794944e-02,1.995535947078687367e-02,1.963439450262897262e-02,1.723761491392433731e-02,1.084983568347371724e-02,8.509885942531061898e-03,8.247039203835241500e-03,1.503853898300457764e-02,2.013082317683792533e-02,2.233145979562542113e-02,2.028781939914238788e-02,1.628579685471832905e-02,8.084069358544453826e-03,5.192436978200070351e-03,1.018030057618337855e-02,1.431952368796194676e-02,1.780522915482369087e-02,1.763375634312499413e-02,1.784271242045702005e-02,1.854565824921698344e-02,2.035124534083906575e-02,2.388692686385701300e-02,3.749559364655946636e-02,5.643172266071101728e-02,8.143523921623470330e-02,1.159501887036676615e-01,1.476684387512682550e-01,1.522851994486765226e-01,1.504369129872215605e-01,1.421235793669029801e-01,1.232944499410685152e-01,1.032936160868109382e-01,8.661033938233618501e-02,7.767439068769631250e-02,7.554097390413071211e-02,7.250688131640099787e-02,7.118708622223222926e-02,7.636514738714461625e-02,7.513995867624481684e-02,6.898353155523649638e-02,5.719278096969264424e-02,4.550804530027585670e-02,3.579732078974992571e-02,3.518155032508676894e-02,4.069498802176597929e-02,4.887246864742975094e-02,5.535019552776127005e-02,5.716515207302300117e-02,5.369419682685788731e-02,4.711708722902938767e-02,3.735692421194238000e-02,2.921322129436095330e-02,2.471525021396406979e-02,2.373217887259583547e-02,2.450467122510513809e-02,1.971622909663780371e-02,1.491825896723791497e-02,1.010264439166630272e-02,1.701172962651718856e-02,2.951775741285075916e-02,5.304585741721534742e-02,6.280391828559307721e-02,5.038988224009303962e-02,3.819846227971504526e-02,2.635987188218016225e-02,1.802281238663263480e-02,1.222578337079307208e-02,1.000067221704295170e-02
2.170659567785137092e-02,3.075123785418222913e-02,3.020167549093343701e-02,3.033663404564233487e-02,3.076526956593101172e-02,2.775410128577790458e-02,2.176047690747590427e-02,1.039843155250562770e-02,1.145050424606468623e-02,1.777193169354917071e-02,2.371241976162311027e-02,2.628593446686216042e-02,2.358452423699333375e-02,1.633850695694007149e-02,8.822142468205134216e-03,1.761898663409430799e-02,2.291008685014479448e-02,2.340101458103142212e-02,1.545207832331946425e-02,6.653315508938733094e-03,1.175640367993309107e-02,1.709200520978244875e-02,2.270662277025767631e-02,2.127342466216735478e-02,1.725044365342986996e-02,8.346437715226261850e-03,7.400826973882642171e-03,1.483805917323182885e-02,1.481306181149236352e-02,1.243614146616668463e-02,6.126183502072603433e-03,8.824893975064730667e-03,1.985662275236174321e-02,2.505964539458351709e-02,2.760336527718954339e-02,2.351722109507222574e-02,1.647310019904101377e-02,7.027798205832473492e-03,9.009193022655478597e-03,1.266651378834549382e-02,1.743404292497716113e-02,1.766071861483263505e-02,1.465834296475827456e-02,7.764396356389424714e-03,3.952460651786440446e-03,9.157491656363474231e-03,1.217771328507316966e-02,1.384105330140206550e-02,9.011443530496415083e-03,6.028582951750265616e-03,7.849286773585442689e-03,1.272612763094215643e-02,1.925328248748046922e-02,1.981458075401888730e-02,1.816869376778833256e-02,1.226981335740841977e-02,8.988962627265487462e-03,7.170611630983726552e-03,1.438048125034840918e-02,2.007338224208968583e-02,2.318477521840125316e-02,2.177381573931188100e-02,1.826348750484238850e-02,1.007404514627763085e-02,6.708590157369960331e-03,1.050130997505024054e-02,1.516522027601508241e-02,1.969123163087673975e-02,1.988378145095947777e-02,2.011133724850704477e-02,2.038434856903131864e-02,2.161355086860991884e-02,2.448562199613652651e-02,3.710574506177843207e-02,5.488155932397845160e-02,7.852913300448034761e-02,1.129066595958681946e-01,1.446635115136083172e-01,1.487410681244086263e-01,1.468463496865419771e-01,1.389793562000080640e-01,1.214772627885377099e-01,1.023773298643763374e-01,8.405734593055676218e-02,7.400446722090808782e-02,7.121051017150677176e-02,6.838307749432692706e-02,6.755722761123879316e-02,7.381241600606389119e-02,7.444936833730796122e-02,7.075963312533431471e-02,6.053254346600075303e-02,4.981737033149595539e-02,3.959065813288651509e-02,3.679060200721759322e-02,3.899546627853041347e-02,4.698816648668263651e-02,5.404513996165793976e-02,5.786468413073267425e-02,5.631586615762058240e-02,5.161244362672838537e-02,4.130876529696690669e-02,3.141410330167412196e-02,2.271591949732168492e-02,2.044997189302387441e-02,2.144003004312745528e-02,1.888454501238311448e-02,1.621948018398307670e-02,1.335148980436859367e-02,1.952316809500571210e-02,3.013151332073448277e-02,5.223381853686459575e-02,6.231412703858118379e-02,5.303698320352975837e-02,4.182962665773317518e-02,3.011088791503349280e-02,2.115396757747351614e-02,1.448018609698990475e-02,1.101706863427007535e-02
2.146466147243324477e-02,3.119713767641856331e-02,2.991253047659640091e-02,2.895253451015639828e-02,2.814098111108641678e-02,2.639559544777561606e-02,2.176630475314995580e-02,1.194598500215729095e-02,1.152520229402128477e-02,1.526414565677580194e-02,2.228369962490384798e-02,2.608177538390826083e-02,2.483286861528577472e-02,1.756599678577656573e-02,9.425043549177579416e-03,1.677898878331822441e-02,2.185589022805360312e-02,2.381499325344940687e-02,1.701805059949245899e-02,8.850029074520364414e-03,1.116055005290724454e-02,1.546725856580036598e-02,2.216939212010091143e-02,2.199916316221375151e-02,1.898717323362651352e-02,9.316970548049977735e-03,7.335125102495143080e-03,1.345168261643009400e-02,1.446901878504347830e-02,1.293250156127270963e-02,4.255413774901759504e-03,5.852914271079643835e-03,1.695440892861539706e-02,2.309166157648722198e-02,2.674636151255928990e-02,2.392467228676468938e-02,1.783568158512888885e-02,9.094410861927713918e-03,8.851799853848082988e-03,1.080062482781415922e-02,1.656328340526697432e-02,1.786748376277434366e-02,1.600122494165372514e-02,9.434360979401763825e-03,5.233262480648831309e-03,8.305098580177042167e-03,1.103408824181105821e-02,1.355015222096340836e-02,9.626063687983158965e-03,6.731650614063169717e-03,6.775782462867229079e-03,1.129910256356096709e-02,1.824118432027513337e-02,1.967420768704030917e-02,1.881221625421640453e-02,1.351909397591583017e-02,9.373500570256427036e-03,6.049284432172127336e-03,1.344496055693470554e-02,1.959401290996275191e-02,2.362161779179304533e-02,2.297322596191222338e-02,2.013950968616659565e-02,1.223198948029317543e-02,8.421812789697698601e-03,1.069156518628880566e-02,1.570007780482745793e-02,2.116504525413787433e-02,2.190659156282268732e-02,2.234011831725586997e-02,2.237367938183991434e-02,2.320104374327549429e-02,2.555987370417169696e-02,3.720211839257556857e-02,5.378000431388217650e-02,7.597903719488316443e-02,1.101207517797443136e-01,1.418000316578314213e-01,1.451331535330402656e-01,1.430405474095854113e-01,1.355222132874665253e-01,1.193050633437754415e-01,1.011152231075441443e-01,8.134454207846014695e-02,7.017300618273208945e-02,6.655193918458450486e-02,6.376569743998153350e-02,6.323673445498992352e-02,7.025995324072242809e-02,7.260827029319258386e-02,7.135637566602383297e-02,6.293785168268055397e-02,5.359474434141903165e-02,4.363853831901356312e-02,3.913742582300406420e-02,3.831257200782676314e-02,4.532041592722484136e-02,5.225752423842216360e-02,5.780237491513122439e-02,5.825048352893490156e-02,5.570359938412381556e-02,4.584594303335971788e-02,3.499695755638518313e-02,2.244145379215746125e-02,1.783659064119644255e-02,1.728871834309667760e-02,1.731047869798028535e-02,1.709381102336568134e-02,1.643560996079139122e-02,2.206134807486391514e-02,3.089875906328405294e-02,5.087163847134730521e-02,6.084935475206017241e-02,5.473316430229331619e-02,4.478061557287054545e-02,3.354086188401193130e-02,2.426969033580774621e-02,1.716325898518974991e-02,1.310099353742748968e-02
2.105241802032333659e-02,3.159235807902948528e-02,3.000031239349506412e-02,2.790164314434685419e-02,2.557409434689525418e-02,2.491648563146418513e-02,2.158129720881038840e-02,1.342646531315546364e-02,1.153374993421973742e-02,1.263711403646573805e-02,2.064699395509705243e-02,2.561914991568362693e-02,2.583220500866692179e-02,1.900198124127653806e-02,1.076405441463604631e-02,1.610869855877100978e-02,2.062474053052511594e-02,2.400623491240390719e-02,1.842014150797779623e-02,1.096023568305118032e-02,1.044753393202547953e-02,1.367772828276365114e-02,2.139939795561848074e-02,2.249886775223038440e-02,2.066477213308446498e-02,1.124334236883252694e-02,8.256604823035057494e-03,1.204774308067649638e-02,1.396730872425424978e-02,1.394422925381705314e-02,6.571697757398978212e-03,6.903078614745667557e-03,1.436057839932493134e-02,2.084831871782907159e-02,2.555257631677820482e-02,2.404107572601482667e-02,1.903458773342075333e-02,1.119099232051690151e-02,8.606470095989825209e-03,8.714554756108596964e-03,1.540897818451013486e-02,1.780023110311506479e-02,1.713145165919782373e-02,1.120560410304823409e-02,6.777373240709920477e-03,7.421159841300989900e-03,9.685114640417592097e-03,1.295527916282902293e-02,1.001487283338818764e-02,7.298661006141272944e-03,5.666050476138882394e-03,9.759034921908136401e-03,1.694384065459410976e-02,1.921232804360990809e-02,1.914683211231223495e-02,1.456616785198517998e-02,9.717262129350614369e-03,5.060601996902123860e-03,1.230737708681519348e-02,1.869180070115635320e-02,2.360871390969934702e-02,2.380960932325523055e-02,2.178525725406755056e-02,1.430181041948371846e-02,1.008201264688792301e-02,1.070504896627427066e-02,1.590812984374319686e-02,2.217973997930222652e-02,2.360431767270038811e-02,2.439578152899328500e-02,2.436514234307488730e-02,2.496783534751230438e-02,2.697750260707232339e-02,3.770909450665713147e-02,5.310697124092826626e-02,7.381922792581400994e-02,1.076314698038955686e-01,1.391161314698638185e-01,1.415307522607672785e-01,1.391103441580676114e-01,1.318549071617645674e-01,1.168579627783238040e-01,9.956186146019704863e-02,7.851595164678444594e-02,6.624414658789871957e-02,6.167643350859717405e-02,5.877078655917436500e-02,5.833542909969054169e-02,6.579313895194742468e-02,6.965218330310857242e-02,7.073984157871328338e-02,6.429991151343281142e-02,5.662818847823206797e-02,4.754392888865515560e-02,4.200721165250999312e-02,3.886122948063420318e-02,4.413146754379113079e-02,5.021919069248091672e-02,5.704466134611788086e-02,5.941691398137318586e-02,5.917232716252768254e-02,5.053261429097825191e-02,3.973436261997487229e-02,2.479039215315349820e-02,1.668044346181504767e-02,1.210249085709402990e-02,1.486624101721417505e-02,1.727274066507835174e-02,1.901766529024642716e-02,2.444925646120114232e-02,3.189632670460002678e-02,4.911391735100818084e-02,5.854289717823879524e-02,5.543089348306476372e-02,4.691440695762295193e-02,3.645558063295136625e-02,2.709319071584600364e-02,1.992148763409892429e-02,1.583043791457458549e-02
2.054438884492096329e-02,3.188679269964184160e-02,3.041019462242147003e-02,2.718910927503096972e-02,2.315980996942585898e-02,2.335316886067118763e-02,2.118919073723718460e-02,1.478200598738020274e-02,1.144413853757337771e-02,9.910409777356165781e-03,1.881025542585215010e-02,2.489333663427313256e-02,2.656348688657677107e-02,2.048620064726394685e-02,1.252322865973245526e-02,1.551000721665347568e-02,1.923412322896529691e-02,2.396782437250459183e-02,1.963770786315153019e-02,1.295743415369691835e-02,9.622179071970885650e-03,1.173882419122480175e-02,2.039774955165473552e-02,2.275867783608398476e-02,2.217322140963028099e-02,1.343325717427039205e-02,9.470356885790849610e-03,1.053929728802539996e-02,1.329862263445764393e-02,1.481675757774131297e-02,8.881639546683233605e-03,7.951069191521886736e-03,1.164970543656515360e-02,1.836585431512403194e-02,2.402774141924214624e-02,2.385379231115514198e-02,2.002697922032722205e-02,1.323490007292123412e-02,8.249903296232095548e-03,6.434147276938638124e-03,1.397751837690299620e-02,1.744601428770798171e-02,1.801682117511058806e-02,1.290868940904434797e-02,8.380103062111626464e-03,6.561881659221217855e-03,8.228830334923642117e-03,1.206025305943640540e-02,1.015899076995826177e-02,7.739187132488999608e-03,4.667969319084633827e-03,8.239949710730085780e-03,1.539925713310249383e-02,1.843825468512298726e-02,1.915828359969450057e-02,1.538239082632567034e-02,1.012437873418169966e-02,4.500546203408438764e-03,1.109553530260495163e-02,1.737786845568745075e-02,2.312813798117214353e-02,2.422962385694986398e-02,2.311064622860557055e-02,1.617636233196187087e-02,1.160669421507607227e-02,1.054581080363731910e-02,1.578875281122769231e-02,2.269869833719511190e-02,2.490048849544373652e-02,2.617143205471859913e-02,2.623366435860962492e-02,2.677293512167977854e-02,2.858913592649607593e-02,3.851790697195213442e-02,5.280517573617636573e-02,7.205628912455290525e-02,1.054554295608843839e-01,1.366325328527152883e-01,1.379942476215698655e-01,1.351440017775157321e-01,1.280817953205526660e-01,1.142248523189820231e-01,9.778493965089785078e-02,7.561848919845917671e-02,6.228176273423478154e-02,5.669796464990545237e-02,5.352464653952125617e-02,5.298171595400179290e-02,6.052514344303900479e-02,6.564948212994703436e-02,6.891084438303157755e-02,6.454798064761907428e-02,5.875509073705247748e-02,5.099362617840850348e-02,4.515616173093588148e-02,4.061530605403541883e-02,4.361356532534475805e-02,4.822981973861970723e-02,5.572119934243079109e-02,5.979185798540746083e-02,6.185240224933689218e-02,5.499246472519402767e-02,4.517117724039863835e-02,2.951388165638067773e-02,1.692465313317709913e-02,6.006898834503295558e-03,1.151547014544076174e-02,1.659647632234032694e-02,2.088569521398483606e-02,2.654720488358134484e-02,3.311402006106545226e-02,4.714308348071785670e-02,5.561604895849331376e-02,5.514275503833133280e-02,4.814563680163719273e-02,3.871282649473595933e-02,2.941966281823519408e-02,2.245519046195693785e-02,1.876544027474174106e-02
2.031077719760749842e-02,3.203006385824358482e-02,3.106183020815660167e-02,2.681172576187491885e-02,2.102243329083977944e-02,2.175515390990948039e-02,2.058196067300224405e-02,1.597812249533636653e-02,1.124171322641490285e-02,7.106599154352915768e-03,1.678445897701734760e-02,2.390238713212810423e-02,2.700975567473827554e-02,2.189724875992614395e-02,1.446839497599720047e-02,1.492155671660164336e-02,1.771013968909749409e-02,2.369645327141402247e-02,2.065145032718877435e-02,1.481540089438822781e-02,8.691413064077894296e-03,9.669094593539475854e-03,1.916877935472751163e-02,2.276728337840416144e-02,2.345743633252937721e-02,1.562121959436337318e-02,1.071839725632198551e-02,8.905417019745244175e-03,1.245809882517264280e-02,1.550802726287313880e-02,1.106658567497548033e-02,8.925770943376550026e-03,8.913036053854043669e-03,1.570673455166400959e-02,2.218345798954940787e-02,2.335442022896565967e-02,2.078146063955758210e-02,1.516931744792725939e-02,7.776600495351427243e-03,3.994376776726913693e-03,1.228192545055639684e-02,1.679646406417526286e-02,1.862797330164419132e-02,1.447323109586702919e-02,1.002000806454271184e-02,5.998785179092155570e-03,6.909640082481767823e-03,1.088357487578271721e-02,1.004539353261459100e-02,8.120534993530496154e-03,4.165883252187658342e-03,7.064171860312298129e-03,1.366304825714944639e-02,1.737345410631076573e-02,1.884019714285283670e-02,1.594294095140674425e-02,1.069916832455769518e-02,4.662157039879777538e-03,9.942733706174926300e-03,1.567519153169895027e-02,2.217664010187544305e-02,2.419855601654528204e-02,2.404921131700454157e-02,1.778654494622373267e-02,1.295460443458559992e-02,1.024567648812670616e-02,1.535954231853913290e-02,2.269652355027296578e-02,2.573518424757121822e-02,2.757998790793789526e-02,2.787455929646804470e-02,2.848855258267420781e-02,3.024769283771095926e-02,3.950035694569775657e-02,5.278610515651004087e-02,7.066508803998437782e-02,1.035826991408523856e-01,1.343500351466908327e-01,1.345715049279259667e-01,1.312230049170482471e-01,1.243045351140575350e-01,1.115002199484861900e-01,9.586371916294419981e-02,7.270321831459682083e-02,5.834972920101307026e-02,5.172922600087985490e-02,4.816064711912343421e-02,4.732086035849785571e-02,5.459611606332366585e-02,6.070163968134882626e-02,6.590633514057370190e-02,6.364907920290800714e-02,5.985890910758043942e-02,5.374892652335847010e-02,4.830582845111876245e-02,4.331215254999765812e-02,4.387265032477064702e-02,4.663175401045093621e-02,5.402551793748448100e-02,5.941751422790905734e-02,6.363321407207869762e-02,5.893080248258437265e-02,5.073753782845250027e-02,3.557348011773520807e-02,1.888744863767997245e-02,1.582172312635839921e-03,8.246388712766006268e-03,1.499285004889798142e-02,2.189161682207080642e-02,2.820942640463582757e-02,3.445342308916033575e-02,4.517130943800896220e-02,5.238161854923815280e-02,5.394413380328363233e-02,4.844143218735122436e-02,4.022003744563225347e-02,3.109856430982869263e-02,2.453386783086809741e-02,2.156463852559305575e-02
2.071561499267042528e-02,3.197388491342399719e-02,3.186155004595322277e-02,2.676711763351034834e-02,1.931531801647315069e-02,2.018526215426880502e-02,1.975656554675272319e-02,1.699031559767540112e-02,1.092151218311124619e-02,4.255404957165324388e-03,1.458542368905960812e-02,2.264750444627608786e-02,2.715648237649751981e-02,2.315540297857969498e-02,1.645316108521925960e-02,1.432518199610484030e-02,1.609257951450110760e-02,2.319364654164298573e-02,2.144370167588714737e-02,1.650857679342209242e-02,7.665959640592875587e-03,7.492027916215377933e-03,1.772051870598017470e-02,2.251625976402236648e-02,2.448439086749946633e-02,1.770223988667878057e-02,1.190731803914671545e-02,7.152277545345300455e-03,1.144526637267772803e-02,1.599203040014457455e-02,1.308763031736846598e-02,9.883287069960408275e-03,6.401496395267868358e-03,1.301542311788578613e-02,2.003768113143181498e-02,2.253934599523321758e-02,2.127276055502508312e-02,1.694724251509143950e-02,7.998192859009229522e-03,2.714512443477238093e-03,1.071643777478352086e-02,1.584828264997154013e-02,1.893918142303085278e-02,1.584948903549250609e-02,1.176886453964828827e-02,6.313567993059995311e-03,6.223330865517651481e-03,9.465078008751296595e-03,9.668480874312605083e-03,8.527726062437670715e-03,4.607289831124170010e-03,6.611383620354692285e-03,1.181472362067905769e-02,1.605498725595065623e-02,1.819505331413978980e-02,1.622784818093693862e-02,1.141122496160943203e-02,5.511559254318607048e-03,8.862616755588833065e-03,1.361865972230860700e-02,2.076564286707407656e-02,2.369827772165909036e-02,2.455244271563163799e-02,1.907928226978658492e-02,1.410324919342590549e-02,9.864888987912746876e-03,1.466048640314279727e-02,2.216012799271925224e-02,2.606331156845765468e-02,2.855089468954485898e-02,2.920031005608497016e-02,3.000279123668160575e-02,3.181806686332371709e-02,4.052136790199228900e-02,5.293944569497481545e-02,6.958824145814794526e-02,1.019750857342711786e-01,1.322481959611878921e-01,1.312944324569600418e-01,1.274173628097791111e-01,1.206169870196449889e-01,1.087798777717064458e-01,9.388638337811694434e-02,6.982682578998869460e-02,5.451256082836729300e-02,4.687708939245871509e-02,4.281575809236799757e-02,4.151326325711592741e-02,4.817244842637851548e-02,5.494337793108571011e-02,6.180036341826204010e-02,6.160858989576887407e-02,5.986676207090508434e-02,5.563274152395344951e-02,5.117066828842475185e-02,4.655490737146378982e-02,4.493193328073656623e-02,4.574998457216077064e-02,5.220620136316842658e-02,5.841030113221290510e-02,6.446624966154697323e-02,6.213231647969898186e-02,5.596980703251949046e-02,4.208262740026841309e-02,2.592854312487206589e-02,8.732971766259312041e-03,9.008438840975288228e-03,1.250009330143567882e-02,2.194765032808985994e-02,2.928701633054563158e-02,3.575003717239713663e-02,4.343856393479662154e-02,4.923127513045448544e-02,5.197140193898616700e-02,4.782269487313463990e-02,4.093526037939693857e-02,3.202743446075587141e-02,2.598337760268776622e-02,2.396649598605054068e-02
2.135361768426575699e-02,3.167447038824008909e-02,3.271394793989408634e-02,2.705532543614640878e-02,1.820334876246861716e-02,1.871311356961062947e-02,1.871416448827993920e-02,1.779953040769835168e-02,1.052070109955715455e-02,1.475698782203664367e-03,1.226525391790029076e-02,2.113357781812080088e-02,2.699197278276226075e-02,2.420681323633882415e-02,1.838510184454546573e-02,1.374205081603880121e-02,1.444503028746437455e-02,2.246795921264359286e-02,2.199878353154666177e-02,1.801958310651254405e-02,6.632605965458553132e-03,5.314156123388206338e-03,1.607793904009852462e-02,2.200039248429396660e-02,2.522911240821068546e-02,1.961646602255062016e-02,1.299086350696170011e-02,5.298280534514275553e-03,1.026512691336278066e-02,1.624694035739274872e-02,1.490753530999042176e-02,1.108998512489297629e-02,4.980150687427574094e-03,1.076044757400436425e-02,1.761547448585943851e-02,2.141036346020650308e-02,2.148039936478819689e-02,1.852673101273671907e-02,1.027960844596215173e-02,4.785077780374645540e-03,9.935414942152928641e-03,1.460368362695988256e-02,1.892914806147601159e-02,1.699512353936049464e-02,1.363221559046873081e-02,7.742949571534188738e-03,6.389415236691982705e-03,7.852809000391399244e-03,9.033449486315363666e-03,8.862213890790979903e-03,5.639399511269400748e-03,6.658402991627922901e-03,9.967988116321756589e-03,1.454214485568766299e-02,1.723543055181420494e-02,1.622310289883423587e-02,1.212489283283139582e-02,6.756933439130668149e-03,7.776316484663245432e-03,1.125582349787235779e-02,1.892185726309255842e-02,2.272668730089430489e-02,2.458753812515973233e-02,2.001203675247890251e-02,1.504492104852598114e-02,9.496700207846431319e-03,1.375819311084934028e-02,2.108977108521414151e-02,2.585447490331928277e-02,2.902899353126257853e-02,3.013864482272703843e-02,3.121978863787690239e-02,3.318058849094777246e-02,4.144896603288153458e-02,5.314333252146379721e-02,6.873951975483991172e-02,1.005675536876443066e-01,1.302855416574544012e-01,1.281760933087618126e-01,1.237807590151067394e-01,1.170995387764890983e-01,1.061555615406460373e-01,9.194602395669297656e-02,6.705290953849382674e-02,5.083618965159870245e-02,4.223776740194559731e-02,3.762701233979991178e-02,3.573305415399904983e-02,4.144698882424826397e-02,4.854348673370643269e-02,5.670471725267069163e-02,5.847114154641018524e-02,5.874855968702393655e-02,5.652096664765380446e-02,5.349233526429721802e-02,4.992387369260201102e-02,4.672164820714785893e-02,4.580547144102315588e-02,5.054758673570185212e-02,5.696769791269246097e-02,6.437384790712408211e-02,6.445867989534159737e-02,6.053862958351791113e-02,4.845504965767492844e-02,3.328711400154793498e-02,1.661137188538132706e-02,9.820988345401786279e-03,9.479103336017612180e-03,2.107888227218078850e-02,2.964472623316122268e-02,3.680567174821193499e-02,4.218481025021603159e-02,4.658544742441694808e-02,4.941053161317224968e-02,4.636443790141174526e-02,4.086883923612386754e-02,3.215166843999324453e-02,2.667782921414642988e-02,2.576492500901133437e-02
2.196537711058723502e-02,3.109426502067828835e-02,3.352977625160748210e-02,2.766611353952317179e-02,1.781722327953963805e-02,1.739781805029262315e-02,1.746040502543260570e-02,1.839057796846920931e-02,1.168269314350929913e-02,2.570039479072108897e-03,1.127542355491660021e-02,1.937006402707325270e-02,2.650787285345244243e-02,2.501248389461598054e-02,2.020281318255035680e-02,1.324086554807538119e-02,1.287449717565726341e-02,2.153899886974808969e-02,2.230340240423918374e-02,1.960334913444841676e-02,8.407221799415246985e-03,6.195175598024605344e-03,1.476402675700528612e-02,2.121798939765513065e-02,2.567144300065243162e-02,2.131996647862462527e-02,1.394746130947933753e-02,3.392805965370101172e-03,8.940940013049498633e-03,1.625513715673276502e-02,1.649112571157120011e-02,1.300995912478926375e-02,6.090424032008484936e-03,9.715587114752486514e-03,1.495059869705711586e-02,1.997552687432735744e-02,2.138854945096735696e-02,1.986955454003683924e-02,1.248012992578562824e-02,6.856979987597888911e-03,8.971337946852068340e-03,1.307076049153486387e-02,1.858178451918907417e-02,1.787253076447400252e-02,1.545549605686931394e-02,9.760333225122094086e-03,7.018519644353871448e-03,6.110891387877911453e-03,8.165639219470237700e-03,8.997846088606441944e-03,6.773410615880114810e-03,6.902259040386682712e-03,8.301880769399055948e-03,1.292881678783904323e-02,1.598580294883637093e-02,1.592189625754947616e-02,1.272431793319972471e-02,8.146030516206522257e-03,6.630405703687569825e-03,8.650971030859874039e-03,1.668926343785797836e-02,2.129824499890863032e-02,2.413678822936762142e-02,2.055160602973071793e-02,1.578471817577308672e-02,9.264331608952111607e-03,1.274446292720550142e-02,1.949990243098168735e-02,2.509362400582165059e-02,2.897473092913378789e-02,3.063199494673064793e-02,3.205935486426138986e-02,3.423183467869259089e-02,4.216142069886684440e-02,5.327373532920284815e-02,6.801082421000059774e-02,9.927277289446242992e-02,1.284014694298851456e-01,1.252088096714061016e-01,1.203460910664165551e-01,1.138133136149165198e-01,1.037085695058233004e-01,9.013507297465148116e-02,6.445247116867999781e-02,4.738849705348959634e-02,3.789209847166737782e-02,3.272815302870459714e-02,3.016737632525378493e-02,3.464218577071243033e-02,4.170820446726548891e-02,5.076975212730544529e-02,5.432163632013296828e-02,5.651720500600285191e-02,5.633802616809896469e-02,5.506010054022625333e-02,5.304171511911369430e-02,4.906253978099085755e-02,4.684693210846681277e-02,4.934450410430357009e-02,5.536641994057672767e-02,6.345934195112701293e-02,6.585122870796333849e-02,6.421958895629384378e-02,5.429188012946657704e-02,4.045680890398348217e-02,2.465248062770976703e-02,1.232609067571069708e-02,8.349895452808066623e-03,1.983702380230651513e-02,2.918103802288970344e-02,3.741835394270850296e-02,4.157751969091415950e-02,4.478828719629501104e-02,4.647197278526314645e-02,4.419415667588669910e-02,4.008404796649886470e-02,3.146645623639110489e-02,2.653865791016241441e-02,2.679963155813876174e-02
2.247364739661620800e-02,3.020295993544891422e-02,3.422989396134901163e-02,2.855786870514107068e-02,1.819443295456606505e-02,1.626599552968227905e-02,1.600668702186825929e-02,1.875181056477992145e-02,1.341483960788539785e-02,5.284190473435125546e-03,1.077614485858229346e-02,1.737272486793672507e-02,2.569988502188264023e-02,2.554260687146275854e-02,2.186503443553089107e-02,1.295866974494894186e-02,1.156065852530063602e-02,2.044331590431567106e-02,2.234708807259125352e-02,2.099090276542984329e-02,1.052175101332870032e-02,7.478785466660435068e-03,1.334724336651188850e-02,2.017118446746718474e-02,2.579540047289788710e-02,2.277638886936479701e-02,1.530970995546409794e-02,3.158154807975937714e-03,8.425563100904661859e-03,1.600337523081717811e-02,1.780587124202356875e-02,1.528959606689961163e-02,8.778457544420033287e-03,9.413105755149872925e-03,1.208990696211242194e-02,1.825084090083908470e-02,2.098630286879101317e-02,2.094108758987868468e-02,1.454066877003747094e-02,8.867895732594843067e-03,7.826049023242151112e-03,1.126376833654257545e-02,1.788695682150746175e-02,1.844862442825307564e-02,1.710973881889971474e-02,1.194610019804544059e-02,7.852931719280399625e-03,4.424581539286582751e-03,7.144693275353521805e-03,8.879540227509325617e-03,7.803868825995071215e-03,7.296691234292163042e-03,7.096500299887400880e-03,1.135912134446802162e-02,1.448556710257698638e-02,1.532614579902999950e-02,1.313709597047773951e-02,9.521847161670394036e-03,5.442635780892775277e-03,5.916481116822688152e-03,1.413851068995715388e-02,1.944587776492572029e-02,2.319786791118888525e-02,2.067438808315303495e-02,1.633203886565312221e-02,9.290722167012661903e-03,1.171688648499160865e-02,1.741971359424297761e-02,2.378205908159731347e-02,2.836521061198145344e-02,3.063806551167289755e-02,3.245705689218318646e-02,3.488484893999246189e-02,4.255202886643686538e-02,5.321238501295370849e-02,6.728163629899723552e-02,9.798812812822013663e-02,1.265197952792198322e-01,1.223636964739130417e-01,1.171220937193294953e-01,1.107949870154692623e-01,1.015029122283082896e-01,8.853823592630753747e-02,6.210277172875182383e-02,4.423906589508014298e-02,3.390178203945234253e-02,2.824648708274821521e-02,2.501653569805800670e-02,2.802092661774229984e-02,3.469197419222488227e-02,4.418676884569046337e-02,4.928682526995646629e-02,5.322947128453565935e-02,5.505512479967450412e-02,5.571780287363263529e-02,5.559673662853417686e-02,5.167948102940407573e-02,4.874817010004092038e-02,4.887078471037610561e-02,5.394033754993853708e-02,6.191685409121196887e-02,6.633777961285085290e-02,6.687917529826142848e-02,5.931046939287559772e-02,4.712472224215559502e-02,3.258593839693132987e-02,1.816175742869518411e-02,1.139263360496397919e-02,1.879954153031603015e-02,2.784964876289586222e-02,3.740494245192281519e-02,4.161761673785570326e-02,4.397856089323031598e-02,4.335790568584161481e-02,4.148722411263580656e-02,3.869515155732902029e-02,3.001887476806587574e-02,2.553765806698951937e-02,2.695574461492591598e-02
2.284683596187152277e-02,2.897817498487878507e-02,3.474648049557122614e-02,2.964868531288961107e-02,1.925536159717565476e-02,1.530484303623432657e-02,1.437323248757566702e-02,1.887565636102600877e-02,1.498918112461801455e-02,7.968543055268589859e-03,1.016452753232722356e-02,1.516776531395347578e-02,2.456903327273570262e-02,2.577391601040831745e-02,2.334410670952461603e-02,1.309503952267286608e-02,1.075198791046187013e-02,1.923409608506703936e-02,2.212269570786092390e-02,2.211382307963279115e-02,1.250706798256598709e-02,8.671687817925530228e-03,1.176195757219694257e-02,1.886625476052955150e-02,2.558923797710660822e-02,2.395434465798373935e-02,1.735288113885753714e-02,5.519963675727563440e-03,9.232167109989081535e-03,1.548302477643058797e-02,1.882253232572256296e-02,1.748556763613662302e-02,1.182286612558854089e-02,9.262557077300691277e-03,9.109321878012948889e-03,1.626549710766438117e-02,2.026808374883544081e-02,2.171069847700474176e-02,1.641741976915570694e-02,1.077774508354880159e-02,6.512273894876465311e-03,9.203305578155105554e-03,1.684118374815452360e-02,1.869535165006235011e-02,1.851680091387349764e-02,1.410406924903539680e-02,8.975958629973102357e-03,3.403560028813664914e-03,6.233803141929593512e-03,8.484187436275363731e-03,8.638950650314851723e-03,7.901893211207315637e-03,6.683252619400383183e-03,1.001201306649699731e-02,1.279488952010344495e-02,1.444869351162127689e-02,1.331860279340903522e-02,1.079911108213507144e-02,4.895239551325225071e-03,3.976928263595642075e-03,1.154281598602080287e-02,1.722584975364604282e-02,2.178479079998512508e-02,2.036729682319879386e-02,1.668334018316183429e-02,9.636245397655897674e-03,1.073843456966084089e-02,1.489333321246541844e-02,2.193862444649132687e-02,2.719585426476153062e-02,3.013127299093099065e-02,3.236504867365701948e-02,3.506967699691349027e-02,4.253235547192520116e-02,5.285330390780722948e-02,6.642950424356909578e-02,9.660415548745955594e-02,1.245537148175530351e-01,1.195919729733626730e-01,1.140917734110723641e-01,1.080531161306821919e-01,9.957879458637250436e-02,8.722436203117797660e-02,6.008350742422785551e-02,4.145749407531776343e-02,3.030792670907631395e-02,2.429878530919352478e-02,2.049423773841114321e-02,2.191719535894202237e-02,2.782816397234045766e-02,3.719541691357982488e-02,4.353884394145064729e-02,4.898764528111415606e-02,5.269008877103191490e-02,5.536446440579512185e-02,5.734601170338890497e-02,5.425029163487224415e-02,5.126165253350287859e-02,4.932856768267439296e-02,5.302783754058003340e-02,6.003684160877296311e-02,6.604078217628422953e-02,6.847561909357424703e-02,6.331980896042847806e-02,5.303682433472751978e-02,4.012467859850533947e-02,2.487049337190105555e-02,1.559544245037837278e-02,1.739286246419173218e-02,2.568899267155554805e-02,3.661887881928859584e-02,4.210192846443999715e-02,4.403207814870231662e-02,4.024145670949895448e-02,3.845789576840363128e-02,3.686119612696828196e-02,2.790927345283290145e-02,2.370223667246593516e-02,2.616769568021088191e-02
2.306850975035408535e-02,2.740635660433565074e-02,3.502290738301665207e-02,3.083090221543487164e-02,2.083975525736372209e-02,1.448240355914549166e-02,1.259682731349567875e-02,1.876044688246930256e-02,1.637575980746827989e-02,1.057347848389109286e-02,9.461571811320890896e-03,1.280394162686451787e-02,2.312467794045312830e-02,2.568859560716586082e-02,2.461338928315754543e-02,1.377919668112763049e-02,1.061512136256181904e-02,1.795320663212412668e-02,2.162702178737802017e-02,2.294916662344780034e-02,1.432867827100173415e-02,9.751155014264108190e-03,1.002518987237683429e-02,1.731403168859231914e-02,2.504571287127200369e-02,2.482667338926329223e-02,1.920989201951142991e-02,7.907489194669844665e-03,9.937188862875485917e-03,1.469034957673803071e-02,1.951584256090065778e-02,1.944422031358973568e-02,1.484276647716567185e-02,9.178583206364152036e-03,6.197962857734940802e-03,1.408816130281917607e-02,1.923410646295893242e-02,2.215236366237903140e-02,1.806882156928776156e-02,1.254759907957863144e-02,5.047250187948046536e-03,6.916391795164796887e-03,1.544828220156202470e-02,1.859046589317950651e-02,1.962047550239288951e-02,1.612360175643218901e-02,1.069974293961617820e-02,4.079124973532102100e-03,5.880765090151627954e-03,7.803549250418220784e-03,9.224801982579277845e-03,8.721725826934079856e-03,7.179512071873480131e-03,9.004037997513904268e-03,1.100707409691840423e-02,1.331710143869720142e-02,1.324142308897010428e-02,1.194868963500421086e-02,6.766239373438313540e-03,5.127528686593840063e-03,9.519392363749455688e-03,1.473121300366729558e-02,1.992969607162027243e-02,1.962912894233486555e-02,1.681105928700175542e-02,1.025734072204920189e-02,9.810378989009920642e-03,1.197963132788104970e-02,1.960115339067311502e-02,2.548272607005172552e-02,2.910496149037099245e-02,3.175370788361678298e-02,3.473454151943531493e-02,4.203472952540694696e-02,5.210825835472365081e-02,6.534031423284976381e-02,9.501339983933571043e-02,1.224118177487534126e-01,1.168282249404104939e-01,1.112132434483979471e-01,1.055668732727159526e-01,9.794752527442163181e-02,8.623814005663497928e-02,5.846929294258491894e-02,3.910965829134775001e-02,2.713372238794559826e-02,2.098193410603893527e-02,1.682465194351249332e-02,1.681376249491812330e-02,2.160879015301975237e-02,3.010492638754280054e-02,3.730455818129691653e-02,4.394288435106774582e-02,4.930838114419210105e-02,5.395334542282294310e-02,5.811273344168632615e-02,5.645988614715236054e-02,5.407872454071790957e-02,5.077867573764595355e-02,5.289697814995480973e-02,5.819926014243612805e-02,6.518198287874449326e-02,6.906728580496597492e-02,6.621923538135338072e-02,5.799791883218029243e-02,4.700842191619708510e-02,3.160208667203660143e-02,2.006703379250228403e-02,1.570102232894181674e-02,2.288523720665073743e-02,3.496627534372793999e-02,4.269017750802916317e-02,4.463333664263407358e-02,3.726851971247335804e-02,3.534367707201241382e-02,3.477338951969733555e-02,2.529244345098849087e-02,2.112359002673351582e-02,2.442486688374186435e-02
2.313137915689682245e-02,2.548467512879399460e-02,3.501334169362076143e-02,3.199470733094446351e-02,2.276661719992227953e-02,1.378822260668120629e-02,1.075305746749077862e-02,1.841570534559187552e-02,1.755438250452882876e-02,1.307028944914413390e-02,8.750204436638934352e-03,1.039776209855322944e-02,2.139462661705799143e-02,2.527404202462881985e-02,2.563418780233698083e-02,1.490848420178703115e-02,1.105086893175789495e-02,1.659725152967293435e-02,2.086164414883496382e-02,2.347711691487212177e-02,1.595616706355710776e-02,1.069939157604466416e-02,8.159625325095501078e-03,1.553072694308276977e-02,2.416241030654238744e-02,2.537041809712598309e-02,2.082638748435958545e-02,1.022354308673092266e-02,1.049129227557715240e-02,1.362680263247524094e-02,1.986521389368808149e-02,2.109439219648344757e-02,1.769003001274250392e-02,9.649856451926081685e-03,4.305124153698522242e-03,1.202739812305484920e-02,1.789085177445436797e-02,2.224538069715955788e-02,1.945580452425464679e-02,1.442650922889735128e-02,4.934084240603326364e-03,5.716442481632715879e-03,1.380531324129227744e-02,1.811839948735716188e-02,2.037562207202243611e-02,1.792506145984650717e-02,1.280776938269505109e-02,6.034296711506115067e-03,5.915740407752193182e-03,6.840230894931055572e-03,9.525105607716201003e-03,9.625064250043191896e-03,8.329168214322732813e-03,8.344940471696567566e-03,9.274816260246444150e-03,1.198092502285835054e-02,1.289120029621008620e-02,1.285704481221055379e-02,8.833821989592590546e-03,6.670155613857434163e-03,7.670997577554722509e-03,1.213410694354329078e-02,1.768630691363538149e-02,1.847257669062601915e-02,1.667302791944274068e-02,1.103645807677536284e-02,8.891220676187604199e-03,8.751652921824084469e-03,1.682861073917292158e-02,2.326605256831132396e-02,2.757457065156444093e-02,3.061415988305107166e-02,3.384778576384692844e-02,4.101464723605555140e-02,5.091153433690463748e-02,6.391761729259401448e-02,9.311898618126686344e-02,1.200047470949908157e-01,1.139955554886238343e-01,1.084232418387739427e-01,1.032878061454413215e-01,9.658898949885813545e-02,8.559289599448446917e-02,5.731812713749975113e-02,3.725182827429097954e-02,2.439296647878719942e-02,1.835088192896347850e-02,1.422187541666714017e-02,1.345879746380242506e-02,1.681630442091663902e-02,2.334713538916433767e-02,3.089120411442236591e-02,3.830296763982538738e-02,4.502582521166632878e-02,5.149136690226026325e-02,5.778350006418758039e-02,5.803658048996193641e-02,5.687051296056731819e-02,5.309366993334328072e-02,5.368390007129512920e-02,5.684034846094849353e-02,6.407551026552939233e-02,6.882325461667809785e-02,6.800774937247563989e-02,6.188380470321097615e-02,5.301352717914687568e-02,3.801259802565844920e-02,2.466151795641275193e-02,1.436571396909722305e-02,1.994420660040245596e-02,3.241961819973362274e-02,4.302275798991284789e-02,4.540912137358819878e-02,3.456508206882451251e-02,3.237999970078870443e-02,3.263391509040222682e-02,2.238238626290425110e-02,1.797288130174162085e-02,2.177872240261313763e-02
2.303843614482851271e-02,2.322550125477081465e-02,3.468295307425253715e-02,3.304332485934347724e-02,2.487400588393938808e-02,1.330529797790140981e-02,9.029026698097825099e-03,1.787914134551659220e-02,1.850771432556071530e-02,1.544240417509996910e-02,8.342670975553087911e-03,8.343986361590388992e-03,1.947027786504278157e-02,2.452321494014006453e-02,2.636262073442866005e-02,1.625124964820679613e-02,1.181273000184688768e-02,1.514165309622126331e-02,1.983423693769666152e-02,2.368120859244278106e-02,1.736081164530990303e-02,1.150221701947610684e-02,6.197785179201368948e-03,1.354082031863584196e-02,2.294206077140333033e-02,2.556709523241192453e-02,2.216875424244404980e-02,1.242579111078069044e-02,1.087810423698417316e-02,1.229934703108631101e-02,1.985546206994697610e-02,2.238893493450070521e-02,2.027646378782033826e-02,1.181031774294974412e-02,5.410912121371767164e-03,1.071569945033711869e-02,1.625160340385930699e-02,2.197511967613947209e-02,2.054261635745338252e-02,1.666828133830117534e-02,7.696072061131322209e-03,6.937175945685829410e-03,1.201885807857783900e-02,1.727120577890210729e-02,2.074543897299867962e-02,1.944302516229662325e-02,1.492681343288549366e-02,8.414664048697095486e-03,5.987171273502249827e-03,5.608161930224381427e-03,9.515730229968792295e-03,1.044399694004985793e-02,9.763440791712648531e-03,8.074343423614110254e-03,7.852931246819560077e-03,1.052337003783625387e-02,1.226583431247084757e-02,1.346967190060663865e-02,1.071456278172400189e-02,8.282608816774035890e-03,6.400585552376299517e-03,9.818567338852349224e-03,1.513752570165437933e-02,1.692774079963002901e-02,1.623003876598186346e-02,1.184058873056919106e-02,7.933985499405896147e-03,5.295884418594696066e-03,1.370532437472034119e-02,2.061657347836017007e-02,2.558241057951830474e-02,2.896198377749220620e-02,3.240076445990856119e-02,3.945362960003856445e-02,4.922449726952289606e-02,6.209086781966054180e-02,9.084257379173561742e-02,1.172521107895706932e-01,1.110123276633691591e-01,1.056432130043802736e-01,1.011447668126042448e-01,9.545251721511541221e-02,8.526594730055458982e-02,5.665728323870399680e-02,3.592373420809286122e-02,2.210492032686194042e-02,1.638644012304447603e-02,1.277095935831162182e-02,1.255413439503112738e-02,1.430618641858287521e-02,1.757450002969522876e-02,2.475550002732321980e-02,3.235104765304055996e-02,4.001523845274167213e-02,4.803968739442675967e-02,5.630691899701391334e-02,5.876932723401497027e-02,5.931701326662376650e-02,5.597864224153283053e-02,5.537481855472098369e-02,5.637789381926917170e-02,6.309913926068537460e-02,6.802991964746531173e-02,6.879723662134598627e-02,6.465881670955955784e-02,5.797084359971268336e-02,4.384870826867173776e-02,2.951821124091690354e-02,1.480185921924646528e-02,1.793867131341406185e-02,2.902681846879565791e-02,4.281081054568636191e-02,4.602698073114509097e-02,3.222716651514483110e-02,2.976330479954823749e-02,3.062618742769706442e-02,1.947397808506329958e-02,1.454116291127904338e-02,1.835437078743948694e-02
2.281056454668183714e-02,2.066770609763479011e-02,3.400999223076817124e-02,3.389726227990774027e-02,2.703295047012758620e-02,1.337504205780009128e-02,7.929000362429734078e-03,1.726431875758271256e-02,1.922089894405167726e-02,1.770064611675496724e-02,9.165613978050574095e-03,7.783158007676268565e-03,1.760640470101894339e-02,2.343562437311945065e-02,2.676167874692681609e-02,1.761534000956897772e-02,1.270082224784973429e-02,1.358064397585118273e-02,1.856096450970175227e-02,2.354881218073702834e-02,1.851573442269899977e-02,1.215936937779391741e-02,4.215059588648508576e-03,1.139665570356897424e-02,2.139282192964710866e-02,2.540308769944794182e-02,2.320789017275145388e-02,1.447627130707753590e-02,1.108637247838890547e-02,1.072087526637888026e-02,1.947757513729813511e-02,2.329219822007619345e-02,2.253540027382344713e-02,1.456066949429930812e-02,7.733626981561719446e-03,9.627151605977088411e-03,1.433726866951944012e-02,2.133379606600029760e-02,2.129776326912913298e-02,1.866285312131935395e-02,1.038820129189952507e-02,8.055296068060735851e-03,9.947632874857517682e-03,1.604969479828113887e-02,2.070123816494722283e-02,2.062119868966938788e-02,1.688888051072344465e-02,1.088830503160461739e-02,5.981000075559418303e-03,4.141591519902461382e-03,9.185640083385109705e-03,1.105442007543126076e-02,1.120855503890161309e-02,8.333675541392806044e-03,7.083813804616469374e-03,9.060320424930611710e-03,1.137690312659407968e-02,1.375080739940962374e-02,1.232293916681347773e-02,1.012969045946366352e-02,6.633952172269894781e-03,8.493065632648046093e-03,1.241431236726563483e-02,1.504977281360894703e-02,1.545590089862266571e-02,1.255398741521175643e-02,6.908336076387858876e-03,1.715242307553123445e-03,1.035257435696767571e-02,1.764945754813421544e-02,2.320575789351589369e-02,2.684285769102035674e-02,3.041213183199031195e-02,3.736314056896960362e-02,4.704050600334241938e-02,5.982288878752430039e-02,8.813167557169024335e-02,1.140893114257662960e-01,1.078000320485401342e-01,1.027874662274170930e-01,9.905161396239736682e-02,9.446136998716547772e-02,8.519781161510228684e-02,5.647054400752886394e-02,3.514293855305231085e-02,2.031259742812342728e-02,1.498795580647169917e-02,1.219499227549347350e-02,1.361557780800927084e-02,1.408243009535592102e-02,1.381479815941137612e-02,1.964622032149816386e-02,2.649041108224690216e-02,3.452253175886187825e-02,4.371653533962364946e-02,5.369354696448413317e-02,5.851401779057626568e-02,6.113284617397006515e-02,5.904772133318579586e-02,5.782119187136967875e-02,5.709919783843179358e-02,6.263875127123323672e-02,6.708332317988939530e-02,6.882370339590583586e-02,6.639576364441140965e-02,6.178876941069318812e-02,4.891539686259308017e-02,3.469149458995907098e-02,1.796661134596492723e-02,1.764241039142394607e-02,2.491506517396627901e-02,4.187722376805422253e-02,4.623344240269720157e-02,3.029196110263981598e-02,2.760745401600583904e-02,2.888293787164832038e-02,1.701055468643989169e-02,1.133547310619387183e-02,1.437534690792634066e-02
2.250965070879097640e-02,1.790837554029599266e-02,3.299319447423560564e-02,3.449291996308612857e-02,2.914407585033045728e-02,1.452551670644165564e-02,8.183779730589157281e-03,1.674032265720248880e-02,1.968191974071428069e-02,1.982091031630730388e-02,1.132773537779012060e-02,8.867661932641691946e-03,1.585944749377081811e-02,2.201941707615611213e-02,2.680347933653336526e-02,1.887738211262195154e-02,1.359760785663632378e-02,1.194126043365684002e-02,1.707151747642732947e-02,2.307166273925143063e-02,1.939637417371396083e-02,1.291504731323210066e-02,3.066474498817069270e-03,9.612672191060048915e-03,1.952850797476006137e-02,2.487008032152252662e-02,2.391862268783786702e-02,1.633850680808199285e-02,1.110874385356450458e-02,8.911041631332191140e-03,1.872963394176556037e-02,2.377718145150774925e-02,2.441151252061037405e-02,1.721126312065853273e-02,1.017039254706341399e-02,8.453365018154558597e-03,1.217848061842300572e-02,2.032133593531793708e-02,2.169498474160297397e-02,2.036262535526286652e-02,1.295520649178504707e-02,9.047817617799380763e-03,7.629338958563834476e-03,1.446544113719423590e-02,2.022301016322720565e-02,2.141124343097610544e-02,1.860104847377751919e-02,1.330761914529570225e-02,5.990178361574718599e-03,2.656424185118912065e-03,8.578718954453166609e-03,1.137737701342420721e-02,1.248927124879901061e-02,9.168337561777525901e-03,7.134719476880289901e-03,7.683051584898685678e-03,1.025441630124496011e-02,1.367654144646337361e-02,1.359911202864644460e-02,1.218221878688016679e-02,8.485887107866659299e-03,8.348895655653821440e-03,9.746960733575190869e-03,1.293852177983219852e-02,1.433994713964664713e-02,1.308504212603021043e-02,8.228007731488790402e-03,3.209409239898630781e-03,8.791086808784320805e-03,1.456017331324789554e-02,2.057261171913335809e-02,2.434177837401074740e-02,2.793459918190512731e-02,3.479049657576714638e-02,4.439095599535769487e-02,5.711716661091661290e-02,8.496652501114171363e-02,1.104740312257464357e-01,1.042917490521752533e-01,9.977270209635133447e-02,9.691689035827494303e-02,9.352036485680108313e-02,8.529596625282259703e-02,5.669204599751508089e-02,3.490196009903211161e-02,1.909475314800401433e-02,1.402480713944997612e-02,1.199412000976010292e-02,1.535668753993035297e-02,1.552996369135607735e-02,1.324711889593246754e-02,1.654352489544654026e-02,2.133745574780678000e-02,2.890200131646300519e-02,3.870526404220487465e-02,5.001722746076511100e-02,5.719571821314661797e-02,6.208776284945796697e-02,6.190509312655283203e-02,6.076366118836290520e-02,5.905883289686127136e-02,6.301576268847358664e-02,6.645179886203743391e-02,6.844810539217631440e-02,6.729442477564837044e-02,6.447883421678068938e-02,5.309001991994800884e-02,3.974498101202234013e-02,2.277730393540496057e-02,1.840334945925590354e-02,2.029047190886532070e-02,4.016588063177033846e-02,4.585797519939400352e-02,2.871253002546202138e-02,2.591152856583304673e-02,2.746086828172153091e-02,1.563548017210390773e-02,9.158370788825248923e-03,1.020227836446088027e-02
2.231211788449681543e-02,1.520276605419101056e-02,3.167642451703670675e-02,3.477986642188893307e-02,3.111940272241177016e-02,1.653764104325970707e-02,9.556882771231543089e-03,1.625793063202682701e-02,1.988227690042846871e-02,2.173479486826778925e-02,1.389830498959490623e-02,1.049523905433523766e-02,1.403787063042279994e-02,2.029602258997054154e-02,2.646779631888937154e-02,1.995831284929879337e-02,1.444531923731703221e-02,1.029675019959963925e-02,1.542109644417973685e-02,2.224642450149944342e-02,1.998105156801979060e-02,1.445143137465961999e-02,5.004714469442877317e-03,9.529618872349996175e-03,1.736875892738055580e-02,2.396549530725571031e-02,2.428008489140290327e-02,1.797747985071642546e-02,1.094323503357665095e-02,6.899073595208795803e-03,1.761841619247964813e-02,2.382526206129027824e-02,2.585804845627496726e-02,1.960469767743151445e-02,1.250694123328270277e-02,7.177924712560996776e-03,9.825039695544546259e-03,1.894689672271262018e-02,2.171423287949484499e-02,2.172355251937577864e-02,1.534131876863253051e-02,9.900268611065085947e-03,5.128504564200564615e-03,1.254787861518901620e-02,1.930021960119565616e-02,2.177305947076755427e-02,1.999423196573724137e-02,1.557489524911180936e-02,7.567457360548590639e-03,3.392208497060567041e-03,8.272466584906032483e-03,1.136412517205332914e-02,1.348994002882352751e-02,1.034833890101643540e-02,7.785350137782377430e-03,6.424862756141462745e-03,8.960919018434661265e-03,1.323500796851675293e-02,1.449580894183154917e-02,1.412557241972326252e-02,1.097971068610534631e-02,8.928852131629975292e-03,7.596762706907705942e-03,1.078815544040161861e-02,1.288683167064606609e-02,1.336405760574622785e-02,1.021275343959844421e-02,6.383524026709802568e-03,8.080492054992480938e-03,1.172415684480285734e-02,1.789562190704456837e-02,2.159892435289536422e-02,2.506655052826852609e-02,3.182843583851030500e-02,4.135356184708448984e-02,5.402571198431480037e-02,8.136675135506650502e-02,1.063921668772874057e-01,1.004407157498393710e-01,9.652817024806897850e-02,9.465453037197649189e-02,9.252563132281205194e-02,8.544283128467378141e-02,5.721013375273911045e-02,3.516506535326498900e-02,1.855303716765781263e-02,1.340603404736084338e-02,1.178415970443855501e-02,1.690887121000479026e-02,1.781159845278845397e-02,1.546291252768198544e-02,1.583582589644463162e-02,1.780160591348517798e-02,2.366177753751234208e-02,3.327549787205204279e-02,4.541878364193692452e-02,5.481053748371379764e-02,6.201954327587581167e-02,6.419864079491403863e-02,6.386416936015446022e-02,6.205265225151355285e-02,6.441795748362882934e-02,6.659611329053512219e-02,6.813455905252169265e-02,6.769075117182911383e-02,6.618196606867596254e-02,5.634745005802622997e-02,4.426883546443004247e-02,2.803448275426537531e-02,1.950774787189677242e-02,1.543580359130311205e-02,3.773749538480035415e-02,4.481147707804204045e-02,2.736626454205771594e-02,2.456401399492277524e-02,2.630304994416334322e-02,1.569437065063915976e-02,8.581538459071020447e-03,6.384741254628724556e-03
2.272302540887798095e-02,1.325503065498686781e-02,3.022106017313965984e-02,3.471857470842822091e-02,3.288193892888488512e-02,1.885341391709874359e-02,1.137108730916777839e-02,1.567191782817649662e-02,1.981804965858417061e-02,2.339961271357502218e-02,1.650892531063108404e-02,1.225373336040458741e-02,1.212748428610196591e-02,1.831193283640399419e-02,2.574103972782212230e-02,2.080355824984338187e-02,1.523738075939094598e-02,8.810373344166747001e-03,1.372081636856350983e-02,2.107532467918107888e-02,2.025159462929735504e-02,1.591105776835155527e-02,7.350352734131277571e-03,9.584503647293851625e-03,1.493915825617175494e-02,2.269290653354218840e-02,2.427625640660694209e-02,1.936011996046950803e-02,1.060319785274648624e-02,4.741221524560862953e-03,1.616585192285618922e-02,2.342684957724253114e-02,2.683648694351279881e-02,2.166334703560087588e-02,1.467693361899914672e-02,5.944021007016011757e-03,7.439598299313729575e-03,1.723830269038092305e-02,2.134264888591685255e-02,2.270636009563663238e-02,1.749144734551418695e-02,1.065862741411988807e-02,2.675295709376819715e-03,1.040844062906021508e-02,1.793261496602618216e-02,2.167564177483700949e-02,2.101132517557485757e-02,1.760981635445678026e-02,9.731185062397184476e-03,5.018516858903334515e-03,7.926680181699371011e-03,1.098722293176760192e-02,1.413005057256276620e-02,1.157085319239439455e-02,8.725522431478387186e-03,5.392032923980171616e-03,7.637612889745130224e-03,1.242705682979541870e-02,1.497768402343530383e-02,1.575140319233415270e-02,1.350126133667346393e-02,1.018054808423127927e-02,6.776703410427287015e-03,8.932757060610745092e-03,1.111625450536729218e-02,1.334047500013565458e-02,1.194120196540664203e-02,9.435853932828454360e-03,8.158125282662354039e-03,9.890677956464383885e-03,1.553210339422488560e-02,1.883618336323457723e-02,2.197349225000768194e-02,2.863129419350765245e-02,3.806435385774899899e-02,5.065812370394557479e-02,7.739803084725160875e-02,1.018630267010322277e-01,9.622860719984771549e-02,9.300584872410444515e-02,9.219475127380268031e-02,9.137533276186993181e-02,8.550659239424740488e-02,5.788015521758770737e-02,3.585921614438630778e-02,1.876017784495231239e-02,1.310412255498045325e-02,1.138446285745675288e-02,1.787386793903688806e-02,1.996726307039031062e-02,1.867522525156906782e-02,1.715294311562432644e-02,1.668744635037865479e-02,1.940600413070533992e-02,2.783599211120135752e-02,4.011498740050696565e-02,5.142926623261463021e-02,6.084108088687892324e-02,6.564643247782403490e-02,6.675215107661812419e-02,6.568385853569443100e-02,6.685053660753660643e-02,6.785712368628270263e-02,6.839294603052194221e-02,6.804233567083288470e-02,6.719047138554215537e-02,5.878850738959681688e-02,4.809173150790309326e-02,3.314530398593373839e-02,2.069238814876768473e-02,1.071421836021509491e-02,3.476285721085868585e-02,4.309076960458144839e-02,2.610564787275281365e-02,2.339104283086988756e-02,2.522373835382709858e-02,1.660257235621566754e-02,9.618690311012319250e-03,4.937238823882996591e-03
2.463258583320325490e-02,1.329501926620801910e-02,2.892548703290468218e-02,3.427907109504962219e-02,3.436963449729457665e-02,2.120073686212584074e-02,1.331212316003822435e-02,1.492802053749687531e-02,1.949166819060745709e-02,2.478508127864171087e-02,1.903757992340696786e-02,1.405269558829939404e-02,1.026257791805761793e-02,1.617321334288605861e-02,2.461603742800172814e-02,2.137281042422831123e-02,1.603650181913782169e-02,7.834281483013023906e-03,1.220134718530951554e-02,1.956694554877565911e-02,2.019403955480133031e-02,1.712645146743996954e-02,9.625244868014148220e-03,9.514194746319494175e-03,1.227135725203782474e-02,2.106243694615223677e-02,2.389653480796937943e-02,2.045594513976653830e-02,1.033702627592511698e-02,2.911694310511108840e-03,1.453693862543200578e-02,2.258260142303542342e-02,2.731715131711990804e-02,2.333031921409920231e-02,1.693941657036992371e-02,6.633037442394535549e-03,6.768826760758007294e-03,1.538119987673803278e-02,2.057556394703698860e-02,2.327776510381868863e-02,1.935247909488632678e-02,1.219244393305872649e-02,2.732142706950139392e-03,9.189508281259202438e-03,1.613095903411435744e-02,2.109814117582664919e-02,2.160474018450747602e-02,1.934108230004238232e-02,1.182638099930593753e-02,6.661401779368920049e-03,7.330431867193056179e-03,1.023739062961596946e-02,1.435283087632220969e-02,1.262409757425925899e-02,9.818761619531799628e-03,4.976553455715992599e-03,6.620280662611457978e-03,1.126701066774250803e-02,1.502247661925543501e-02,1.695408712607465382e-02,1.578194363052008026e-02,1.212472741804117987e-02,7.736190582312531955e-03,7.580178992186323468e-03,9.064168484788651114e-03,1.298170797111735351e-02,1.333607481102546885e-02,1.231525180681834926e-02,9.626333249319701107e-03,9.879175005469222753e-03,1.395191448232596491e-02,1.639134086377139199e-02,1.892779967492719609e-02,2.544181658663094078e-02,3.473448108913662624e-02,4.719171645894430778e-02,7.317841119623882951e-02,9.694354872543797796e-02,9.167323077231037676e-02,8.919021676272630150e-02,8.949450669668601588e-02,8.998035276846785835e-02,8.535300496061104525e-02,5.854155398097723312e-02,3.686398642726625846e-02,1.969421895485252288e-02,1.314238704873663469e-02,1.081352244256989989e-02,1.811497965950063793e-02,2.142563229945911724e-02,2.166290670197919613e-02,1.967958511509126929e-02,1.775886669214266772e-02,1.667753846743028415e-02,2.303987060078499169e-02,3.441858254066305217e-02,4.720532953060523063e-02,5.854488403137447089e-02,6.604796911178736907e-02,6.907417109267456612e-02,6.946962733466495454e-02,7.012190595223352640e-02,7.035640863742971540e-02,6.968100161750907795e-02,6.887220333377330750e-02,6.795376208879197466e-02,6.066446635081880479e-02,5.123730868777107150e-02,3.785114745976970313e-02,2.196803988769485336e-02,6.620229862267157026e-03,3.153056737281633576e-02,4.078342244623354290e-02,2.482507698528486906e-02,2.222562383198473102e-02,2.400481861541711379e-02,1.758183657658141802e-02,1.213070828213427994e-02,8.046249315733673690e-03
2.806776070060548051e-02,1.538357093875248986e-02,2.780435244593055036e-02,3.344054913014384706e-02,3.553101960430705974e-02,2.345747067594818047e-02,1.525685316928780851e-02,1.402751222168492976e-02,1.891518595825347412e-02,2.586557705673492302e-02,2.141973474696372975e-02,1.593932882765780254e-02,8.838106586747366059e-03,1.415221546907183443e-02,2.309236609250728961e-02,2.163532495959250013e-02,1.696418553391255621e-02,7.892203830446259047e-03,1.120331333311879417e-02,1.773739518319316158e-02,1.979947560725619365e-02,1.805861785241423198e-02,1.175423428288622542e-02,9.295859049761288906e-03,9.403487861923234478e-03,1.909122590051393065e-02,2.313629876741053748e-02,2.123776432012253884e-02,1.169995448826241513e-02,4.211408088230988306e-03,1.366085754111244326e-02,2.130536977740921795e-02,2.728031508836495367e-02,2.455964738409743831e-02,1.924106580639732902e-02,9.252467789478843740e-03,7.847306625139997133e-03,1.340987655289543543e-02,1.941764599610312086e-02,2.341166382628951520e-02,2.087465011774310847e-02,1.455331107047546507e-02,5.540896226783884222e-03,9.020741417315156913e-03,1.391766691081271733e-02,2.003095833340501342e-02,2.173652486500867592e-02,2.070466225378774644e-02,1.376401119964675360e-02,8.241862479308845191e-03,6.494418350469046211e-03,9.125310352860677501e-03,1.412050386611731108e-02,1.337759631916921391e-02,1.103835109121365128e-02,5.641393502566675530e-03,6.285117181739417573e-03,9.783573532186696023e-03,1.462258286857960263e-02,1.767212442831623403e-02,1.767643135058484527e-02,1.436261998956097144e-02,9.801908180468821979e-03,6.535673644830491610e-03,6.791845688399290176e-03,1.227481459143689793e-02,1.433291434568573913e-02,1.489450010574081863e-02,1.210571955888095977e-02,1.142630337348819400e-02,1.348591255298546739e-02,1.471995215331476509e-02,1.636881761409402641e-02,2.262713189402820388e-02,3.166860668258301287e-02,4.387979205039998359e-02,6.888263742983291582e-02,9.173112448656658979e-02,8.683531788074694280e-02,8.510729862851840188e-02,8.654706672988123073e-02,8.827427187144253062e-02,8.485666831540571164e-02,5.903443546054398805e-02,3.801712256394901290e-02,2.121876377705081765e-02,1.359568271902272113e-02,1.028933844454636010e-02,1.766088146238251749e-02,2.194872383113585096e-02,2.386176225174501536e-02,2.241138895748100851e-02,2.006044205392389090e-02,1.604573283375973838e-02,1.979281284097675342e-02,2.877066384925492867e-02,4.239179089241681270e-02,5.520761239692863892e-02,6.528966170457425888e-02,7.053236788431868631e-02,7.293133634972912005e-02,7.387721577283784535e-02,7.396164924735780521e-02,7.228316077731894440e-02,7.066554390530599417e-02,6.904600393199236685e-02,6.238424481366126872e-02,5.391669343531954595e-02,4.210508231621672148e-02,2.365966729538086094e-02,4.085571856679596700e-03,2.854723474065702302e-02,3.806177625888610555e-02,2.350891896785863369e-02,2.096531120753080540e-02,2.247712094164146940e-02,1.816426664128836799e-02,1.456375055867117560e-02,1.196496009474518063e-02
